ply
format ascii 1.0
element vertex 689
property double x
property double y
property double z
property short id
end_header
-2.37655568122864e+00 -2.34809660911560e+00 8.43333721160889e+00 540 
-2.15951371192932e+00 4.54051375389099e-01 8.38944625854492e+00 541 
-1.92581260204315e+00 2.46993139386177e-01 8.39215087890625e+00 542 
-1.62385952472687e+00 -4.72436938434839e-03 8.37828254699707e+00 543 
-2.66681981086731e+00 -3.89576882123947e-01 8.39957714080811e+00 544 
-7.24312543869019e-01 -6.07428252696991e-01 8.39461326599121e+00 546 
-1.18516755104065e+00 -2.55738663673401e+00 8.43862915039062e+00 547 
-2.39773368835449e+00 -1.00360289216042e-02 8.37365818023682e+00 548 
-6.17140769958496e-01 -7.72949010133743e-02 8.38908004760742e+00 549 
-2.80408215522766e+00 -2.65744596719742e-01 8.40278625488281e+00 550 
-7.91289269924164e-01 -5.03958523273468e-01 8.39078330993652e+00 551 
-2.70972013473511e+00 -2.16209173202515e+00 8.43155002593994e+00 552 
-2.04592657089233e+00 -2.46578955650330e+00 8.43223857879639e+00 553 
-1.61989581584930e+00 -2.55695390701294e+00 8.34333515167236e+00 554 
-2.65703177452087e+00 5.70234715938568e-01 8.39035034179688e+00 555 
-1.78614139556885e+00 5.94592928886414e-01 8.38371944427490e+00 556 
-1.98240137100220e+00 5.20200371742249e-01 8.38773918151855e+00 557 
-9.15046751499176e-01 7.65461772680283e-02 8.39074134826660e+00 558 
-1.93559300899506e+00 -8.81490558385849e-02 8.39066886901855e+00 559 
-7.26861059665680e-01 -2.82937586307526e-01 8.38847637176514e+00 560 
-2.99151837825775e-01 -4.18457239866257e-01 8.38609790802002e+00 561 
-2.77357673645020e+00 -6.85418426990509e-01 8.40635395050049e+00 562 
-2.42350244522095e+00 -1.70888543128967e-01 8.37209415435791e+00 564 
-2.49938678741455e+00 -7.08792805671692e-01 8.34752941131592e+00 565 
-1.43192017078400e+00 -6.28304779529572e-01 8.39825630187988e+00 566 
-7.97635138034821e-01 3.43671381473541e-01 8.28668212890625e+00 567 
-1.60575592517853e+00 2.23365545272827e-01 8.32774257659912e+00 570 
-1.15904116630554e+00 5.35268187522888e-01 8.37783718109131e+00 571 
-1.50663435459137e+00 6.49208664894104e-01 8.38100528717041e+00 572 
-9.54404890537262e-01 1.46744227409363e+00 8.36516857147217e+00 573 
-1.22594094276428e+00 1.57226002216339e+00 8.37275695800781e+00 574 
-2.37829729914665e-01 1.63285768032074e+00 8.35658836364746e+00 575 
-1.72402286529541e+00 1.78039073944092e+00 8.36186981201172e+00 576 
-4.10523742437363e-01 1.90618920326233e+00 8.36786460876465e+00 577 
1.42950654029846e-01 2.16333627700806e+00 8.34572124481201e+00 578 
-1.13485252857208e+00 -1.38706338405609e+00 8.41283607482910e+00 579 
4.87855076789856e-01 -1.36965203285217e+00 8.40003490447998e+00 580 
6.28584623336792e-01 -5.55113554000854e-01 8.31517601013184e+00 581 
-1.26672470569611e+00 -3.48185330629349e-01 8.32133388519287e+00 582 
-3.80646497011185e-01 8.56878757476807e-01 8.38085842132568e+00 583 
-1.21515369415283e+00 -2.57172870635986e+00 8.44551086425781e+00 584 
6.57272160053253e-01 -2.22210812568665e+00 8.40520954132080e+00 585 
6.56794130802155e-01 -1.46390616893768e+00 8.39613151550293e+00 587 
-1.48172163963318e+00 -1.45921468734741e+00 8.41245651245117e+00 588 
-9.16055083274841e-01 4.87311393022537e-01 8.28727722167969e+00 590 
-1.53264200687408e+00 7.73885309696198e-01 8.30730915069580e+00 591 
3.22307139635086e-01 1.49993753433228e+00 8.25602912902832e+00 593 
-1.19112408161163e+00 1.76017582416534e+00 8.36713790893555e+00 594 
-8.39783132076263e-01 2.07414460182190e+00 8.27436542510986e+00 595 
-1.64847671985626e-01 2.54332280158997e+00 8.34535694122314e+00 596 
-1.21375536918640e+00 -2.45949721336365e+00 8.42154693603516e+00 597 
8.10347869992256e-02 -5.59488654136658e-01 8.31515502929688e+00 598 
-8.07486567646265e-03 -4.77456450462341e-01 8.33372306823730e+00 599 
-1.22298121452332e-01 -1.82931351661682e+00 8.40380668640137e+00 601 
-1.03854835033417e+00 1.89762043952942e+00 8.36699581146240e+00 602 
3.12840700149536e-01 -1.32927703857422e+00 8.39673328399658e+00 603 
6.27207100391388e-01 -4.62341308593750e-01 8.31428527832031e+00 604 
-8.73875200748444e-01 2.24480777978897e-01 8.38204383850098e+00 605 
-2.45352223515511e-01 1.64489686489105e+00 8.36303901672363e+00 606 
1.78527712821960e-01 1.97655558586121e+00 8.35134029388428e+00 607 
2.62557297945023e-01 -7.35172480344772e-02 8.37625694274902e+00 608 
2.21632853150368e-01 -1.87624430656433e+00 8.39943981170654e+00 609 
-1.70647278428078e-01 -1.82392501831055e+00 8.40028190612793e+00 610 
4.65197563171387e-01 -1.30966579914093e+00 8.38641357421875e+00 611 
-1.31009066104889e+00 -3.66417109966278e-01 8.32003307342529e+00 612 
-1.30893051624298e+00 7.18102455139160e-01 8.36264133453369e+00 613 
-2.75304406881332e-01 -1.25109493732452e+00 8.30415725708008e+00 615 
1.63691952824593e-01 -6.34372115135193e-01 8.38824272155762e+00 616 
3.50228130817413e-01 -4.57522094249725e-01 8.31490421295166e+00 617 
2.85349160432816e-01 -2.80825555324554e-01 8.38814067840576e+00 618 
-3.14641624689102e-01 5.11663973331451e-01 8.38817691802979e+00 619 
-1.28974127769470e+00 1.65310001373291e+00 8.36899852752686e+00 620 
-8.41538757085800e-02 1.88976943492889e-01 8.39269447326660e+00 621 
-1.08414328098297e+00 1.87161099910736e+00 8.37388229370117e+00 622 
5.44431388378143e-01 -1.06512582302094e+00 8.37355518341064e+00 623 
-1.10924407839775e-01 2.59262919425964e-01 8.39180374145508e+00 624 
9.08954218029976e-02 2.04378867149353e+00 8.34111595153809e+00 626 
9.28141921758652e-02 -1.19779479503632e+00 8.32848548889160e+00 627 
-2.05566719174385e-01 3.51534396409988e-01 8.37314128875732e+00 628 
-1.30310916900635e+00 3.73680323362350e-01 8.33171939849854e+00 629 
-1.81757882237434e-01 5.62002003192902e-01 8.36635208129883e+00 630 
2.36052423715591e-01 -5.14212906360626e-01 8.33926582336426e+00 631 
-8.98915886878967e-01 4.44345057010651e-01 8.30172348022461e+00 632 
2.43536084890366e-01 -3.99403274059296e-01 8.32489490509033e+00 633 
-1.16598224639893e+00 1.79192292690277e+00 8.37935352325439e+00 634 
-9.29634451866150e-01 1.90461385250092e+00 8.35483455657959e+00 635 
-1.25676023960114e+00 -1.16544556617737e+00 8.40365695953369e+00 637 
-4.30878043174744e-01 -8.52910935878754e-01 8.39188575744629e+00 638 
6.19088113307953e-01 -5.88066458702087e-01 8.38307571411133e+00 639 
-1.06961596012115e+00 1.52676805853844e-01 8.39033317565918e+00 640 
-6.87133848667145e-01 2.94583231210709e-01 8.38093090057373e+00 641 
-4.33103442192078e-02 5.61312735080719e-01 8.31129360198975e+00 642 
-7.95455038547516e-01 9.07519996166229e-01 8.37310981750488e+00 643 
6.36278510093689e-01 1.75587177276611e+00 8.34943485260010e+00 645 
-1.00732958316803e+00 1.83990514278412e+00 8.37640380859375e+00 646 
-4.02074992656708e-01 1.90918934345245e+00 8.36574840545654e+00 647 
1.04654684662819e-01 1.97106933593750e+00 8.35226726531982e+00 648 
-9.49031651020050e-01 2.11259317398071e+00 8.27527713775635e+00 649 
-1.40612053871155e+00 2.41090250015259e+00 8.35218715667725e+00 651 
1.24232560396194e-01 2.49396753311157e+00 8.34513664245605e+00 652 
-1.53068709373474e+00 8.49223196506500e-01 8.30526447296143e+00 653 
-1.38695979118347e+00 -2.22325825691223e+00 8.36122035980225e+00 654 
3.32755178213120e-01 -2.22044610977173e+00 8.40941905975342e+00 655 
4.03191089630127e-01 -2.19332671165466e+00 8.40675735473633e+00 656 
-8.30759286880493e-01 -2.07187175750732e+00 8.41794586181641e+00 658 
-5.80435872077942e-01 -1.91762852668762e+00 8.42033863067627e+00 659 
-8.22917819023132e-01 -1.63863885402679e+00 8.41237926483154e+00 660 
4.91541922092438e-01 -1.37827599048615e+00 8.39127349853516e+00 662 
-1.03228366374969e+00 -1.30794322490692e+00 8.40105724334717e+00 663 
-4.91150379180908e-01 -1.26257205009460e+00 8.40216732025146e+00 664 
-3.15344303846359e-01 -1.24168395996094e+00 8.29642295837402e+00 665 
-6.32210612297058e-01 -1.20227527618408e+00 8.35605335235596e+00 666 
-1.30500876903534e+00 -1.17506015300751e+00 8.40500736236572e+00 667 
-1.16483938694000e+00 -1.15039300918579e+00 8.40471076965332e+00 668 
-6.90154016017914e-01 -1.14204454421997e+00 8.40261745452881e+00 669 
-1.25078105926514e+00 -1.77421760559082e+00 8.42165470123291e+00 671 
3.32184374332428e-01 -1.13896977901459e+00 8.39237308502197e+00 672 
6.17473363876343e-01 -4.95263099670410e-01 8.31459140777588e+00 673 
-2.56339579820633e-01 6.47194862365723e-01 8.37639617919922e+00 674 
6.36538386344910e-01 -2.29123139381409e+00 8.40730667114258e+00 675 
-8.14320504665375e-01 -2.07212567329407e+00 8.42306041717529e+00 676 
-1.75365746021271e+00 -1.90225100517273e+00 8.39971828460693e+00 677 
-1.67484891414642e+00 -1.51785552501678e+00 8.41844081878662e+00 679 
4.82571691274643e-01 -1.36873245239258e+00 8.38882160186768e+00 680 
2.54842579364777e-01 -1.36047303676605e+00 8.39453411102295e+00 681 
3.34357708692551e-01 -1.16579234600067e+00 8.39331626892090e+00 682 
-1.43665981292725e+00 -1.01798272132874e+00 8.35649394989014e+00 683 
-6.76290988922119e-01 -8.19046676158905e-01 8.28612995147705e+00 684 
-7.41167247295380e-01 -6.98800206184387e-01 8.39274501800537e+00 685 
1.64122387766838e-01 -3.84176552295685e-01 8.29162120819092e+00 686 
2.61645615100861e-01 -2.89481967687607e-01 8.38582420349121e+00 687 
1.19453445076942e-01 1.43569171428680e-01 8.30683326721191e+00 689 
-7.58093297481537e-01 2.60155498981476e-01 8.38111305236816e+00 690 
-5.02687513828278e-01 2.60481297969818e-01 8.38211917877197e+00 691 
4.46728348731995e-01 1.42498612403870e+00 8.35617065429688e+00 692 
2.58620660752058e-02 1.43099093437195e+00 8.35896015167236e+00 693 
2.40876734256744e-01 1.70885491371155e+00 8.29067611694336e+00 694 
-1.80236369371414e-01 2.08117985725403e+00 8.26478672027588e+00 695 
-1.34256839752197e-01 2.08013629913330e+00 8.26414299011230e+00 696 
-5.88682413101196e-01 2.32147645950317e+00 8.35009384155273e+00 697 
-9.72952961921692e-01 2.57041025161743e+00 8.34617424011230e+00 698 
6.22437179088593e-01 -4.78671014308929e-01 8.31483173370361e+00 699 
-1.28519523143768e+00 -3.50172191858292e-01 8.32291221618652e+00 700 
-6.12471222877502e-01 1.48050618171692e+00 8.25257778167725e+00 701 
8.73957872390747e-02 -1.48856842517853e+00 8.40744876861572e+00 703 
5.38161396980286e-01 -9.02357697486877e-02 8.28632354736328e+00 704 
-4.90356415510178e-01 -8.67062993347645e-03 8.37746429443359e+00 705 
5.17500758171082e-01 -8.07566009461880e-03 8.38153266906738e+00 706 
2.98599004745483e-01 1.67712017893791e-01 8.37266731262207e+00 707 
-6.89533472061157e-01 2.97171086072922e-01 8.38142299652100e+00 708 
-4.22178179025650e-01 5.30105948448181e-01 8.32036685943604e+00 709 
1.19679212570190e-01 5.98121047019958e-01 8.37442970275879e+00 710 
6.66325569152832e-01 6.10933423042297e-01 8.36895942687988e+00 711 
7.36703991889954e-01 6.99778139591217e-01 8.36345958709717e+00 712 
-1.49976789951324e+00 7.77157366275787e-01 8.29799079895020e+00 713 
-7.74584293365479e-01 8.29737544059753e-01 8.37498092651367e+00 714 
-2.02064529061317e-01 8.48346471786499e-01 8.37471485137939e+00 715 
6.78206920623779e-01 9.55533862113953e-01 8.34030342102051e+00 716 
-1.31933405995369e-01 9.64306294918060e-01 8.22219753265381e+00 717 
-1.36909440159798e-01 1.26718950271606e+00 8.36690139770508e+00 718 
-1.28581598401070e-01 1.26786828041077e+00 8.36808490753174e+00 719 
-1.71578955650330e+00 1.33872652053833e+00 8.33288192749023e+00 720 
-1.57161796092987e+00 1.47425162792206e+00 8.36897754669189e+00 721 
-7.03600406646729e-01 1.47469818592072e+00 8.37177371978760e+00 722 
-7.40706384181976e-01 1.55460333824158e+00 8.37506198883057e+00 723 
-1.73187255859375e+00 1.65171909332275e+00 8.24048233032227e+00 724 
3.41601707041264e-02 1.68349778652191e+00 8.28860950469971e+00 725 
-4.14967268705368e-01 1.76598620414734e+00 8.35510349273682e+00 726 
4.65570926666260e-01 1.88987040519714e+00 8.34947776794434e+00 727 
7.27408349514008e-01 2.03271794319153e+00 8.31960296630859e+00 728 
-1.40907609462738e+00 2.20539093017578e+00 8.32203483581543e+00 730 
-5.92360258102417e-01 2.31992363929749e+00 8.35183525085449e+00 731 
-4.93365168571472e-01 2.31980133056641e+00 8.35190773010254e+00 732 
-4.66338574886322e-01 2.31894636154175e+00 8.35260105133057e+00 733 
-3.32828372716904e-01 2.31890392303467e+00 8.34988594055176e+00 734 
-1.29835236072540e+00 2.50253868103027e+00 8.35120677947998e+00 735 
-1.62141814827919e-01 2.54149818420410e+00 8.34796428680420e+00 736 
-1.65488213300705e-01 2.54709243774414e+00 8.34442710876465e+00 737 
-2.15604946017265e-01 2.53914594650269e+00 8.27806091308594e+00 738 
-9.71767544746399e-01 2.56828069686890e+00 8.35169601440430e+00 739 
-1.31060028076172e+00 2.57171535491943e+00 8.34791564941406e+00 740 
8.32489728927612e-02 2.56121444702148e+00 8.28278732299805e+00 741 
6.02755665779114e-01 -2.28519272804260e+00 8.40638923645020e+00 742 
1.73397645354271e-01 -1.89123535156250e+00 8.40070533752441e+00 743 
-5.77981829643250e-01 -1.54629623889923e+00 8.36429977416992e+00 744 
-1.32810020446777e+00 -1.31519997119904e+00 8.31995773315430e+00 745 
-6.43461942672729e-02 -1.04587340354919e+00 8.39066028594971e+00 746 
-7.46984332799911e-02 -1.02132594585419e+00 8.39500617980957e+00 747 
2.69066005945206e-01 -9.05018270015717e-01 8.38618087768555e+00 748 
6.61264955997467e-01 -6.99794650077820e-01 8.38297271728516e+00 749 
-5.56651353836060e-01 -5.70216715335846e-01 8.30165100097656e+00 750 
2.70900964736938e-01 -2.79730498790741e-01 8.38556480407715e+00 751 
-1.21806049346924e+00 2.95508325099945e-01 8.37150192260742e+00 752 
-9.35751199722290e-01 7.46092200279236e-01 8.37809085845947e+00 753 
-1.64069783687592e+00 9.13666307926178e-01 8.38598442077637e+00 754 
2.53659963607788e-01 1.06460154056549e+00 8.27551078796387e+00 755 
-1.16713321208954e+00 1.27651762962341e+00 8.36636543273926e+00 756 
1.69384535402060e-02 1.42125034332275e+00 8.35996818542480e+00 757 
5.28535127639771e-01 2.17708134651184e+00 8.24684429168701e+00 758 
-7.28549659252167e-01 2.32174324989319e+00 8.35182762145996e+00 759 
-7.64992594718933e-01 2.36046767234802e+00 8.35148620605469e+00 760 
3.69672536849976e-01 2.42965698242188e+00 8.34027004241943e+00 761 
-1.60412406921387e+00 -2.52846956253052e+00 8.34464359283447e+00 762 
-6.66854441165924e-01 -2.41316747665405e+00 8.43566703796387e+00 763 
5.68958282470703e-01 -2.39840173721313e+00 8.40856742858887e+00 764 
-1.65970873832703e+00 -2.28827857971191e+00 8.42796421051025e+00 765 
4.45048958063126e-01 -2.17693972587585e+00 8.40907192230225e+00 766 
-5.94086647033691e-01 -1.97625720500946e+00 8.41879749298096e+00 767 
4.35169637203217e-01 -1.89119255542755e+00 8.30355834960938e+00 768 
5.52029907703400e-01 -1.83379590511322e+00 8.33216667175293e+00 769 
4.20558542013168e-01 -1.84206104278564e+00 8.40350532531738e+00 770 
2.58045524358749e-01 -1.35695540904999e+00 8.39501667022705e+00 771 
4.64209288358688e-01 -1.31697249412537e+00 8.38374137878418e+00 772 
3.24829995632172e-01 -1.20071899890900e+00 8.38811874389648e+00 773 
-1.73346316814423e+00 -1.18644225597382e+00 8.32163143157959e+00 774 
-4.70086075365543e-02 -1.09337520599365e+00 8.38997745513916e+00 775 
-1.11918139457703e+00 -9.21755671501160e-01 8.40447807312012e+00 776 
-2.03706339001656e-01 -8.40891420841217e-01 8.29666805267334e+00 777 
-1.73954427242279e+00 -7.73446261882782e-01 8.40032958984375e+00 778 
5.29266595840454e-02 -7.09664046764374e-01 8.38839340209961e+00 779 
-2.22943693399429e-01 -6.15296900272369e-01 8.38892173767090e+00 780 
-2.27623447775841e-01 -6.02670609951019e-01 8.38976287841797e+00 781 
-5.51000714302063e-01 -3.83769333362579e-01 8.39235877990723e+00 782 
-1.50800597667694e+00 -1.82833477854729e-01 8.39341735839844e+00 783 
-3.79476547241211e-01 -1.83723300695419e-01 8.38993358612061e+00 784 
-1.37585473060608e+00 -1.42763137817383e-01 8.39041709899902e+00 785 
-1.27900362014771e+00 -1.11899740993977e-01 8.39025402069092e+00 786 
-1.11215448379517e+00 3.42489890754223e-02 8.39111232757568e+00 787 
-4.59367066621780e-01 9.89975407719612e-02 8.38476562500000e+00 788 
-7.71058320999146e-01 2.60503172874451e-01 8.38101768493652e+00 789 
4.88044321537018e-01 3.25225412845612e-01 8.37225818634033e+00 790 
-2.98912584781647e-01 3.74117910861969e-01 8.31858348846436e+00 791 
7.40519344806671e-01 6.39507710933685e-01 8.36830711364746e+00 793 
-9.34014678001404e-01 7.36799478530884e-01 8.37848854064941e+00 794 
-1.69710561633110e-01 8.99331510066986e-01 8.36946487426758e+00 795 
-1.60606467723846e+00 9.19261336326599e-01 8.38624095916748e+00 796 
-1.59419131278992e+00 9.25307631492615e-01 8.38459205627441e+00 797 
-1.44937992095947e-01 9.39924180507660e-01 8.24711608886719e+00 798 
1.25832617282867e-01 1.01304996013641e+00 8.30774307250977e+00 799 
-1.12960183620453e+00 1.05295705795288e+00 8.37409973144531e+00 800 
-1.24639284610748e+00 1.08326935768127e+00 8.36911106109619e+00 801 
5.19153356552124e-01 1.25380063056946e+00 8.25507450103760e+00 802 
-8.84823426604271e-02 1.27593207359314e+00 8.36641597747803e+00 803 
5.25006353855133e-01 1.25656938552856e+00 8.25441074371338e+00 804 
-1.67115283012390e+00 1.31954061985016e+00 8.33303260803223e+00 805 
-1.63177907466888e+00 1.34671342372894e+00 8.33256816864014e+00 806 
4.84649091959000e-01 1.40473818778992e+00 8.35612201690674e+00 807 
-7.25671947002411e-01 1.46522223949432e+00 8.37213420867920e+00 808 
-9.44592058658600e-01 1.47489929199219e+00 8.36099052429199e+00 809 
7.40442752838135e-01 1.55891811847687e+00 8.35595893859863e+00 810 
-1.59624502062798e-01 1.62990164756775e+00 8.35794067382812e+00 811 
6.68835997581482e-01 1.74538290500641e+00 8.35272502899170e+00 813 
-8.03553044795990e-01 1.76201677322388e+00 8.31759834289551e+00 814 
6.30005121231079e-01 1.77672505378723e+00 8.34753894805908e+00 815 
-4.42140847444534e-01 1.88524568080902e+00 8.36880493164062e+00 816 
-8.43613684177399e-01 1.94096159934998e+00 8.29605674743652e+00 817 
6.05679035186768e-01 1.99710178375244e+00 8.34670639038086e+00 818 
7.36149489879608e-01 2.00346350669861e+00 8.28661823272705e+00 819 
-2.07556933164597e-01 2.02687287330627e+00 8.35500335693359e+00 820 
-5.42941570281982e-01 2.03336238861084e+00 8.35215663909912e+00 821 
-1.03043782711029e+00 2.04610800743103e+00 8.35546207427979e+00 822 
-1.55055427551270e+00 2.08241367340088e+00 8.35581111907959e+00 823 
-2.77235567569733e-01 2.07201576232910e+00 8.28533172607422e+00 824 
-6.00967526435852e-01 2.08716106414795e+00 8.27038478851318e+00 825 
-5.82554757595062e-01 2.08693194389343e+00 8.27068042755127e+00 826 
-1.04391646385193e+00 2.11168336868286e+00 8.27104473114014e+00 827 
1.66406959295273e-01 2.17379665374756e+00 8.34702110290527e+00 828 
-7.69511044025421e-01 2.22623062133789e+00 8.35254287719727e+00 829 
-1.74260091781616e+00 2.30602312088013e+00 8.35830402374268e+00 830 
3.10741484165192e-01 2.37989139556885e+00 8.34197616577148e+00 831 
-2.79352441430092e-02 2.40125393867493e+00 8.34847068786621e+00 832 
-8.06266248226166e-01 2.42548012733459e+00 8.34521293640137e+00 833 
3.78288060426712e-01 2.42600488662720e+00 8.33959865570068e+00 834 
3.32077533006668e-01 2.46958827972412e+00 8.33842372894287e+00 835 
5.08887097239494e-02 2.54094767570496e+00 8.28015804290771e+00 836 
-2.28648439049721e-01 2.54893684387207e+00 8.26873493194580e+00 837 
-1.99692726135254e-01 2.55131793022156e+00 8.27831363677979e+00 838 
8.79722461104393e-02 -2.15113449096680e+00 8.40898227691650e+00 839 
-1.04654049873352e+00 -3.48743259906769e-01 8.31338787078857e+00 840 
-6.96258723735809e-01 1.49927365779877e+00 8.36086940765381e+00 841 
-7.88756549358368e-01 1.52404522895813e+00 8.36423683166504e+00 842 
-1.49480387568474e-01 -2.28300976753235e+00 8.41108989715576e+00 843 
5.07427267730236e-02 -2.25872516632080e+00 8.31778812408447e+00 844 
-1.24904274940491e+00 -2.24071359634399e+00 8.42261695861816e+00 846 
-1.65796065330505e+00 -1.34613084793091e+00 8.40080642700195e+00 848 
4.74413782358170e-02 -1.33143544197083e+00 8.38945865631104e+00 849 
3.25658649206161e-01 -1.19395375251770e+00 8.38869953155518e+00 850 
-1.69613146781921e+00 -1.02698612213135e+00 8.40853118896484e+00 851 
2.19571799039841e-01 -4.97407019138336e-01 8.30629825592041e+00 852 
-6.52421534061432e-01 -2.53342002630234e-01 8.30198574066162e+00 853 
-1.54234647750854e+00 6.37918293476105e-01 8.38371944427490e+00 854 
-4.89737510681152e-01 8.72403264045715e-01 8.38449096679688e+00 855 
-5.89010536670685e-01 1.03309834003448e+00 8.38430023193359e+00 856 
-6.02241694927216e-01 1.08521974086761e+00 8.38311004638672e+00 857 
-1.33491083979607e-01 1.50099086761475e+00 8.31624698638916e+00 858 
-2.37500235438347e-01 1.64099061489105e+00 8.35535526275635e+00 860 
6.36441856622696e-02 1.62799644470215e+00 8.29536819458008e+00 861 
-5.99496126174927e-01 1.65556001663208e+00 8.37261867523193e+00 862 
2.98225790262222e-01 1.97411215305328e+00 8.26242542266846e+00 864 
-1.19111812114716e+00 2.15477776527405e+00 8.26776123046875e+00 865 
-1.34850978851318e+00 2.21882104873657e+00 8.35964488983154e+00 866 
-1.52765154838562e+00 -2.24649238586426e+00 8.36551380157471e+00 867 
-3.89222115278244e-01 -2.12801551818848e+00 8.29292869567871e+00 868 
6.02474436163902e-02 1.12826299667358e+00 8.30199337005615e+00 869 
-5.59009373188019e-01 1.48346745967865e+00 8.32918643951416e+00 870 
-1.38403296470642e+00 1.55181396007538e+00 8.36646270751953e+00 871 
6.18455946445465e-01 2.31756949424744e+00 8.25408554077148e+00 872 
-1.12521737813950e-01 -2.54129314422607e+00 8.41515636444092e+00 873 
2.00643807649612e-01 -2.48004055023193e+00 8.31718730926514e+00 874 
1.93542510271072e-01 -2.46986532211304e+00 8.31652832031250e+00 875 
-1.17956697940826e+00 -2.27871870994568e+00 8.41958236694336e+00 876 
-4.48849618434906e-01 -2.16198039054871e+00 8.29129886627197e+00 877 
-1.73533761501312e+00 -2.06797719001770e+00 8.41923046112061e+00 878 
-4.85712766647339e-01 -1.27653300762177e+00 8.39652061462402e+00 879 
4.56143230199814e-01 -8.76204252243042e-01 8.38418960571289e+00 880 
-2.94244557619095e-01 -6.87829673290253e-01 8.29116153717041e+00 881 
-1.34954929351807e+00 -6.84480428695679e-01 8.39658832550049e+00 882 
-3.09960484504700e-01 3.02855998277664e-01 8.38131713867188e+00 883 
-5.48016130924225e-01 8.73945772647858e-01 8.38148975372314e+00 884 
-8.58285129070282e-02 8.99229109287262e-01 8.36939811706543e+00 885 
-4.53557044267654e-01 1.32172107696533e+00 8.37732887268066e+00 887 
2.09437131881714e-01 1.31636381149292e+00 8.25807952880859e+00 888 
3.89033645391464e-01 1.44338476657867e+00 8.26102447509766e+00 889 
2.90969222784042e-01 1.82060003280640e+00 8.34114170074463e+00 890 
-2.99282908439636e-01 2.06177806854248e+00 8.29224109649658e+00 891 
-8.33922505378723e-01 2.26271820068359e+00 8.27003192901611e+00 892 
-8.60907077789307e-01 2.32444453239441e+00 8.26950168609619e+00 893 
-3.70797425508499e-01 -1.70863294601440e+00 8.40453624725342e+00 894 
-5.65901160240173e-01 8.49411368370056e-01 8.38618850708008e+00 895 
-4.13935482501984e-01 1.27513134479523e+00 8.38270854949951e+00 896 
5.95623493194580e-01 1.52883815765381e+00 8.34968757629395e+00 897 
-1.16957736015320e+00 1.58548462390900e+00 8.38862895965576e+00 898 
5.68927407264709e-01 1.77038633823395e+00 8.31349563598633e+00 899 
-4.23007071018219e-01 2.32187795639038e+00 8.34640026092529e+00 900 
1.86594575643539e-01 -2.46001434326172e+00 8.31658458709717e+00 901 
-1.71899664402008e+00 -2.35747790336609e+00 8.42577075958252e+00 902 
-1.07082736492157e+00 -2.09919142723083e+00 8.41964149475098e+00 903 
-1.59266972541809e+00 -1.35882461071014e+00 8.40793132781982e+00 904 
-6.09460413455963e-01 -1.21665632724762e+00 8.36199951171875e+00 905 
2.50405371189117e-01 -8.61385881900787e-01 8.39026927947998e+00 906 
-2.85587012767792e-01 2.10782408714294e-01 8.38226699829102e+00 907 
-2.57663995027542e-01 2.21666291356087e-01 8.38592720031738e+00 908 
-1.18530690670013e+00 6.03134274482727e-01 8.37379646301270e+00 909 
-9.67955887317657e-01 8.54348182678223e-01 8.28959655761719e+00 911 
-5.84135472774506e-01 9.05887186527252e-01 8.39100265502930e+00 912 
-1.53436100482941e+00 1.03091895580292e+00 8.26684284210205e+00 913 
2.55721449851990e-01 1.20990610122681e+00 8.26755714416504e+00 914 
-3.05776298046112e-01 1.35267162322998e+00 8.35772991180420e+00 915 
4.28634211421013e-02 1.43117129802704e+00 8.36142349243164e+00 916 
3.40632230043411e-01 1.91388285160065e+00 8.26356697082520e+00 917 
3.08763295412064e-01 1.94452321529388e+00 8.26127052307129e+00 918 
-9.62450087070465e-01 2.15111565589905e+00 8.28222846984863e+00 919 
-1.41170310974121e+00 2.41745924949646e+00 8.34897994995117e+00 920 
-2.31396690011024e-01 -9.48825299739838e-01 8.36214542388916e+00 921 
6.92815959453583e-01 -5.75711250305176e-01 8.30840110778809e+00 922 
-1.40404117107391e+00 9.25938963890076e-01 8.35547542572021e+00 923 
-1.36730134487152e+00 9.39060807228088e-01 8.35401344299316e+00 924 
-5.13250231742859e-01 1.13489234447479e+00 8.38356685638428e+00 925 
-7.16967701911926e-01 1.50630879402161e+00 8.36485290527344e+00 926 
-1.18621659278870e+00 1.57713234424591e+00 8.37963581085205e+00 927 
-9.61682736873627e-01 -1.69042384624481e+00 8.40030860900879e+00 928 
-8.71469378471375e-02 -3.49032491445541e-01 8.39068126678467e+00 929 
-1.18595945835114e+00 2.74646449834108e-02 8.28388690948486e+00 930 
-3.38609665632248e-01 1.23605978488922e+00 8.33282184600830e+00 931 
-1.24101674556732e+00 1.55665028095245e+00 8.37665271759033e+00 933 
-5.80354392528534e-01 1.65905427932739e+00 8.38724803924561e+00 934 
-1.18188321590424e+00 1.75777316093445e+00 8.36100292205811e+00 935 
-1.30390512943268e+00 -1.36943817138672e+00 8.40877819061279e+00 936 
1.88521057367325e-01 -1.13956463336945e+00 8.39188861846924e+00 937 
2.01879471540451e-01 -5.15716075897217e-01 8.27722835540771e+00 938 
-2.97991186380386e-01 1.35218214988708e+00 8.36011123657227e+00 939 
-9.57115769386292e-01 1.47629082202911e+00 8.36148166656494e+00 940 
-7.87202179431915e-01 1.56212055683136e+00 8.37362289428711e+00 941 
-1.07765388488770e+00 2.15268015861511e+00 8.26928997039795e+00 942 
-6.45493328571320e-01 2.47825217247009e+00 8.24498367309570e+00 943 
3.74089092016220e-01 2.03626966476440e+00 8.24565029144287e+00 944 
-1.38864111900330e+00 -2.29818654060364e+00 8.36440563201904e+00 945 
-2.72961229085922e-01 3.12855154275894e-01 8.38641643524170e+00 946 
-9.78815197944641e-01 1.13623178005219e+00 8.29421043395996e+00 947 
-5.69384276866913e-01 1.50669908523560e+00 8.32409095764160e+00 948 
-4.16305541992188e-01 1.06588208675385e+00 8.36363124847412e+00 949 
-2.65612499788404e-03 1.78619456291199e+00 8.34600353240967e+00 950 
-7.00495123863220e-01 -2.50543808937073e+00 8.34476852416992e+00 951 
-2.19653159379959e-01 -1.30373549461365e+00 8.35278415679932e+00 952 
-1.38309979438782e+00 2.05565500259399e+00 8.35289192199707e+00 954 
-1.41398608684540e+00 2.15727758407593e+00 8.28295803070068e+00 955 
9.08609852194786e-02 2.44205069541931e+00 8.33562278747559e+00 956 
-9.51846063137054e-01 -2.20335769653320e+00 8.41560459136963e+00 957 
2.99649238586426e-02 2.38932108879089e+00 8.33442115783691e+00 958 
-8.50852489471436e-01 1.82448697090149e+00 8.32250118255615e+00 959 
3.61864775419235e-01 -4.04856383800507e-01 8.31489372253418e+00 960 
-3.15394610166550e-01 6.73655152320862e-01 8.36852836608887e+00 961 
9.00916829705238e-02 1.48183691501617e+00 8.34204864501953e+00 962 
-1.22473001480103e-01 -2.53294229507446e+00 8.41563987731934e+00 963 
-1.66062819957733e+00 -2.33033394813538e+00 8.35195350646973e+00 964 
3.10593634843826e-01 -2.25518608093262e+00 8.32675647735596e+00 965 
-2.92318075895309e-01 -2.26923227310181e+00 8.41213798522949e+00 966 
2.93254703283310e-01 -2.23799180984497e+00 8.41131591796875e+00 967 
-1.45059263706207e+00 -2.22279024124146e+00 8.36984539031982e+00 968 
1.35306283831596e-01 -1.94090592861176e+00 8.40367794036865e+00 969 
-1.16287374496460e+00 -1.93818724155426e+00 8.41891765594482e+00 970 
1.64036661386490e-01 -1.89443755149841e+00 8.40342617034912e+00 971 
5.50096690654755e-01 -1.85553705692291e+00 8.33091163635254e+00 972 
-1.42985951900482e+00 -1.80859494209290e+00 8.41791629791260e+00 973 
-8.08611392974854e-01 -1.51844191551208e+00 8.41092491149902e+00 974 
-4.88292872905731e-01 -1.51068937778473e+00 8.36302471160889e+00 975 
7.31617689132690e-01 -1.47775292396545e+00 8.39437961578369e+00 976 
-1.48103952407837e+00 -1.45611131191254e+00 8.41669464111328e+00 977 
-8.83479952812195e-01 -1.41644859313965e+00 8.40976333618164e+00 978 
3.08526575565338e-01 -8.45646739006042e-01 8.38852882385254e+00 979 
2.58043110370636e-01 -8.07074010372162e-01 8.38772010803223e+00 980 
4.66072224080563e-02 -7.16259300708771e-01 8.39106941223145e+00 981 
6.87315225601196e-01 -6.96267127990723e-01 8.30190563201904e+00 982 
7.12605834007263e-01 -6.79420351982117e-01 8.30492019653320e+00 983 
-1.59185576438904e+00 -5.88847875595093e-01 8.39283084869385e+00 984 
-1.59447610378265e+00 -5.81660926342010e-01 8.39844226837158e+00 985 
-1.27458617091179e-01 -2.83013939857483e-01 8.39354991912842e+00 986 
-5.49981236457825e-01 -2.55341172218323e-01 8.29859447479248e+00 987 
2.03891128301620e-01 -1.01687297224998e-01 8.38882255554199e+00 988 
6.81542336940765e-01 5.65899573266506e-02 8.37638664245605e+00 989 
-1.61187982559204e+00 1.07778288424015e-01 8.38704013824463e+00 990 
-1.37484264373779e+00 1.48743689060211e-01 8.38652896881104e+00 991 
2.84200698137283e-01 1.71744063496590e-01 8.37022018432617e+00 992 
3.65855246782303e-01 2.41577237844467e-01 8.33071041107178e+00 993 
2.27764904499054e-01 3.33653271198273e-01 8.37738323211670e+00 994 
5.73959708213806e-01 3.48189711570740e-01 8.29072284698486e+00 995 
4.18406069278717e-01 5.15325367450714e-01 8.37408161163330e+00 996 
1.27221569418907e-01 5.79028964042664e-01 8.37711429595947e+00 997 
-1.56564211845398e+00 6.27480924129486e-01 8.37962150573730e+00 998 
-1.03473305702209e+00 6.57649040222168e-01 8.28541374206543e+00 999 
7.16411411762238e-01 7.27736711502075e-01 8.36517238616943e+00 1000 
5.79222366213799e-02 7.59575366973877e-01 8.37388610839844e+00 1001 
6.42264246940613e-01 7.97856092453003e-01 8.26859760284424e+00 1002 
6.13744616508484e-01 9.41071331501007e-01 8.27138900756836e+00 1003 
-1.11506390571594e+00 9.94485795497894e-01 8.34766864776611e+00 1004 
-1.14330744743347e+00 1.00899875164032e+00 8.31422519683838e+00 1005 
-1.09387969970703e+00 1.02056634426117e+00 8.34966373443604e+00 1006 
-6.09753429889679e-02 1.09502696990967e+00 8.36814594268799e+00 1007 
-1.24208666384220e-01 1.25497412681580e+00 8.36824321746826e+00 1008 
-1.61532151699066e+00 1.32471394538879e+00 8.33312892913818e+00 1009 
-2.98303753137589e-01 1.34173989295959e+00 8.35717487335205e+00 1010 
-1.68742966651917e+00 1.34141623973846e+00 8.33309459686279e+00 1011 
6.04144334793091e-01 1.37035763263702e+00 8.33390426635742e+00 1012 
4.50717478990555e-01 1.41379284858704e+00 8.35484600067139e+00 1013 
-9.73150908946991e-01 1.49270260334015e+00 8.37193489074707e+00 1014 
-2.32051923871040e-01 1.54288923740387e+00 8.36266803741455e+00 1015 
3.99520881474018e-02 1.62657189369202e+00 8.29083919525146e+00 1016 
-1.70469307899475e+00 1.65411257743835e+00 8.24136924743652e+00 1017 
-4.45026764646173e-03 1.71975564956665e+00 8.35799026489258e+00 1018 
6.32605731487274e-01 1.76907801628113e+00 8.34612369537354e+00 1019 
-1.72351694107056e+00 1.77645456790924e+00 8.36450767517090e+00 1020 
4.95143592357635e-01 1.89204335212708e+00 8.34895229339600e+00 1021 
6.96520447731018e-01 1.92186462879181e+00 8.34741687774658e+00 1022 
3.25040400028229e-01 1.90918374061584e+00 8.26483345031738e+00 1023 
-4.04070675373077e-01 2.02976584434509e+00 8.35174274444580e+00 1024 
-1.17519938945770e+00 2.05027031898499e+00 8.36092758178711e+00 1026 
1.55480116605759e-01 2.17658972740173e+00 8.34352016448975e+00 1028 
-1.69947290420532e+00 2.21195125579834e+00 8.35898780822754e+00 1029 
-1.55114400386810e+00 2.18919563293457e+00 8.25428867340088e+00 1030 
-4.70870912075043e-01 2.45878458023071e+00 8.25278854370117e+00 1031 
-1.24226295948029e+00 2.56823015213013e+00 8.35601329803467e+00 1032 
6.59087359905243e-01 -2.55726742744446e+00 8.40948581695557e+00 1033 
6.08556807041168e-01 -2.40988206863403e+00 8.40771293640137e+00 1034 
6.38196349143982e-01 -2.39500188827515e+00 8.41161727905273e+00 1035 
-1.50816690921783e+00 -2.21563601493835e+00 8.41790008544922e+00 1036 
-2.29697227478027e-02 -2.17839217185974e+00 8.32002735137939e+00 1037 
4.59775656461716e-01 -2.10019588470459e+00 8.31511783599854e+00 1038 
-7.78613328933716e-01 -2.05937457084656e+00 8.42035770416260e+00 1039 
-1.46533513069153e+00 -1.93839108943939e+00 8.41587543487549e+00 1040 
4.43409621715546e-01 -1.27588653564453e+00 8.38480567932129e+00 1041 
2.14463239535689e-03 -1.21757423877716e+00 8.38873767852783e+00 1042 
-2.47432902455330e-01 -7.85751104354858e-01 8.39354038238525e+00 1043 
-4.58049058914185e-01 -7.60677993297577e-01 8.29901313781738e+00 1044 
6.56086683273315e-01 -6.88413798809052e-01 8.38315105438232e+00 1045 
6.52422726154327e-01 -6.76964819431305e-01 8.38263320922852e+00 1046 
6.29469573497772e-01 -6.34689867496490e-01 8.38283538818359e+00 1047 
2.59905576705933e-01 -2.82265663146973e-01 8.38281250000000e+00 1048 
4.42902237176895e-01 2.34564676880836e-01 8.37495899200439e+00 1049 
-7.59343385696411e-01 2.66375452280045e-01 8.38132476806641e+00 1050 
-6.71271741390228e-01 2.91706115007401e-01 8.37897682189941e+00 1051 
6.19195818901062e-01 2.89395034313202e-01 8.30703830718994e+00 1052 
-4.34323430061340e-01 6.90922558307648e-01 8.38166999816895e+00 1053 
-7.76677191257477e-01 7.35104501247406e-01 8.37219047546387e+00 1054 
-9.25396323204041e-01 7.49393165111542e-01 8.37697792053223e+00 1055 
-7.98859119415283e-01 9.02819156646729e-01 8.37107181549072e+00 1056 
6.85778617858887e-01 1.23930954933167e+00 8.35726928710938e+00 1058 
4.42919433116913e-01 1.42217290401459e+00 8.35710048675537e+00 1059 
-1.54973280429840e+00 1.43288683891296e+00 8.36416053771973e+00 1060 
-5.21188490092754e-02 1.43496263027191e+00 8.31473636627197e+00 1061 
6.24404661357403e-02 1.67961573600769e+00 8.32910346984863e+00 1062 
-5.55194556713104e-01 2.03386974334717e+00 8.35663700103760e+00 1063 
-2.61725425720215e-01 2.05228114128113e+00 8.35003662109375e+00 1064 
-1.55758345127106e+00 2.06010961532593e+00 8.35874462127686e+00 1065 
4.56199347972870e-01 2.14009189605713e+00 8.26137161254883e+00 1066 
-3.22938024997711e-01 2.32076811790466e+00 8.34958839416504e+00 1067 
3.53441655635834e-01 2.36033678054810e+00 8.33005046844482e+00 1068 
5.66044330596924e-01 2.40643835067749e+00 8.24904632568359e+00 1069 
-1.36525416374207e+00 2.44965505599976e+00 8.35070896148682e+00 1070 
-1.32935106754303e+00 2.47472405433655e+00 8.35119819641113e+00 1071 
-9.07347917556763e-01 2.48621582984924e+00 8.34475898742676e+00 1072 
-9.19757068157196e-01 2.53770112991333e+00 8.34997749328613e+00 1073 
-1.57505357265472e+00 -2.33479809761047e+00 8.42468357086182e+00 1074 
6.49745643138885e-01 -2.01504921913147e+00 8.31076717376709e+00 1075 
4.28470611572266e-01 -1.84068465232849e+00 8.40319156646729e+00 1076 
-9.35539960861206e-01 -1.53802227973938e+00 8.35920047760010e+00 1077 
-1.08850799500942e-01 -1.45712590217590e+00 8.29467296600342e+00 1079 
-4.48251038789749e-01 -1.43696320056915e+00 8.40746021270752e+00 1080 
-8.27373027801514e-01 -1.38770520687103e+00 8.40838909149170e+00 1081 
1.22063783928752e-02 -1.22661209106445e+00 8.39833259582520e+00 1082 
-9.48016047477722e-01 -1.13013446331024e+00 8.40652179718018e+00 1083 
1.27702310681343e-01 -1.12304723262787e+00 8.39802360534668e+00 1084 
-1.75235557556152e+00 -1.03333413600922e+00 8.40652751922607e+00 1085 
-6.79759830236435e-02 -1.03302645683289e+00 8.39764881134033e+00 1086 
-8.84833395481110e-01 -8.64705920219421e-01 8.40418720245361e+00 1087 
-2.77432590723038e-01 -7.98055768013000e-01 8.38289928436279e+00 1088 
2.01749145984650e-01 -7.65929043292999e-01 8.38555049896240e+00 1089 
1.88909620046616e-01 -7.59699642658234e-01 8.38753318786621e+00 1090 
-2.94804662466049e-01 -7.47099161148071e-01 8.38693714141846e+00 1091 
-7.99436390399933e-01 -7.05114781856537e-01 8.39565658569336e+00 1092 
7.26737022399902e-01 -6.67181789875031e-01 8.30390453338623e+00 1094 
7.31912434101105e-01 -3.04747223854065e-01 8.37859153747559e+00 1095 
-1.00492072105408e+00 -1.70584633946419e-01 8.38788032531738e+00 1096 
-1.16236221790314e+00 -2.14138507843018e+00 8.41971683502197e+00 1097 
-1.19545829296112e+00 -2.00439643859863e+00 8.41237449645996e+00 1098 
-1.07452201843262e+00 -1.89704847335815e+00 8.41763877868652e+00 1099 
4.99265521764755e-01 -1.81731593608856e+00 8.40460109710693e+00 1100 
4.81360793113708e-01 -1.36548817157745e+00 8.39424324035645e+00 1101 
-2.57845491170883e-01 -6.23236417770386e-01 8.39241886138916e+00 1102 
-5.62533617019653e-01 -5.55931627750397e-01 8.30225181579590e+00 1103 
-5.72298243641853e-02 -4.02747035026550e-01 8.38985633850098e+00 1104 
-1.10886263847351e+00 2.47109085321426e-02 8.39466285705566e+00 1105 
-2.87978112697601e-01 2.10410028696060e-01 8.37867641448975e+00 1106 
-1.19445717334747e+00 2.34565809369087e-01 8.36902618408203e+00 1107 
7.03980773687363e-02 5.45803248882294e-01 8.37122631072998e+00 1108 
4.67713683843613e-01 5.64306020736694e-01 8.36977481842041e+00 1109 
6.97530210018158e-01 6.20814561843872e-01 8.36495590209961e+00 1110 
2.65467613935471e-01 1.06887805461884e+00 8.27545356750488e+00 1111 
4.66274261474609e-01 1.13370537757874e+00 8.35953712463379e+00 1112 
6.23810708522797e-01 1.17909204959869e+00 8.36354637145996e+00 1113 
-9.12751734256744e-01 1.19752407073975e+00 8.36933994293213e+00 1114 
5.04538059234619e-01 1.18160557746887e+00 8.25664615631104e+00 1115 
-1.56456780433655e+00 2.17915296554565e+00 8.25455379486084e+00 1116 
-1.40439021587372e+00 2.40756869316101e+00 8.35474109649658e+00 1117 
8.23945760726929e-01 2.42406511306763e+00 8.33548450469971e+00 1118 
7.32886910438538e-01 2.48163866996765e+00 8.33446598052979e+00 1119 
-1.32253801822662e+00 -2.33456707000732e+00 8.35239601135254e+00 1120 
-1.75398433208466e+00 -2.23128890991211e+00 8.34805583953857e+00 1121 
-1.60004377365112e+00 -2.13990521430969e+00 8.42190837860107e+00 1122 
1.22771076858044e-01 -1.94421017169952e+00 8.40643119812012e+00 1123 
-7.80824899673462e-01 -1.93826937675476e+00 8.42250156402588e+00 1124 
4.89741623401642e-01 -1.81902265548706e+00 8.40296363830566e+00 1126 
-3.97179841995239e-01 -1.72998905181885e+00 8.40001869201660e+00 1127 
-4.00714486837387e-01 -1.72432243824005e+00 8.40076255798340e+00 1128 
-1.72363770008087e+00 -1.49221837520599e+00 8.42564392089844e+00 1129 
-4.63950157165527e-01 -1.39803218841553e+00 8.41010856628418e+00 1131 
-7.40922912955284e-02 -1.36147713661194e+00 8.29456996917725e+00 1132 
-3.90923433005810e-02 -1.36141908168793e+00 8.29384708404541e+00 1133 
-1.44399094581604e+00 -1.33397912979126e+00 8.32662487030029e+00 1134 
-1.56070679426193e-01 -1.33468186855316e+00 8.39858245849609e+00 1135 
-1.59787607192993e+00 -1.25017595291138e+00 8.39133167266846e+00 1136 
-1.22780573368073e+00 -1.15791082382202e+00 8.40609455108643e+00 1137 
-4.88250218331814e-02 -1.08569324016571e+00 8.39529705047607e+00 1138 
-6.58329725265503e-02 -1.04067766666412e+00 8.39155292510986e+00 1139 
-1.62935703992844e-01 -9.38537061214447e-01 8.33061218261719e+00 1140 
-8.85764539241791e-01 -8.15610289573669e-01 8.40220928192139e+00 1141 
1.67241513729095e-01 -7.50863850116730e-01 8.38635635375977e+00 1142 
7.41374969482422e-01 -6.55029714107513e-01 8.30491256713867e+00 1143 
-7.24556148052216e-02 -6.25018179416656e-01 8.31349945068359e+00 1144 
-3.63257706165314e-01 -5.56815445423126e-01 8.34164142608643e+00 1145 
-5.65691888332367e-01 -4.19222503900528e-01 8.39346694946289e+00 1146 
-3.96984219551086e-01 -3.54886382818222e-01 8.39034557342529e+00 1147 
-1.19835607707500e-01 -3.02623242139816e-01 8.39398670196533e+00 1148 
-9.03561770915985e-01 -1.31615757942200e-01 8.38726329803467e+00 1149 
4.71998542547226e-01 5.42731955647469e-03 8.37945556640625e+00 1150 
6.78178608417511e-01 8.40245857834816e-02 8.37534999847412e+00 1151 
6.52423739433289e-01 2.11045011878014e-01 8.29024505615234e+00 1152 
4.26203101873398e-01 5.17811357975006e-01 8.37345790863037e+00 1153 
6.06747269630432e-02 5.68703830242157e-01 8.36845493316650e+00 1154 
-4.43369060754776e-01 6.13590896129608e-01 8.38146591186523e+00 1155 
6.73999488353729e-01 6.12685382366180e-01 8.36661911010742e+00 1156 
8.48811417818069e-02 6.88116610050201e-01 8.37554359436035e+00 1157 
9.23405662178993e-02 6.86953008174896e-01 8.37541198730469e+00 1158 
7.24284425377846e-02 7.22478687763214e-01 8.37423324584961e+00 1159 
-1.66007232666016e+00 7.69133746623993e-01 8.38565635681152e+00 1160 
3.38331647217274e-02 8.19173991680145e-01 8.37171268463135e+00 1161 
-2.33722493052483e-01 9.06547486782074e-01 8.24800872802734e+00 1162 
2.66573220491409e-01 9.43222105503082e-01 8.27648639678955e+00 1163 
1.36810019612312e-01 1.00028955936432e+00 8.36807346343994e+00 1164 
1.48675620555878e-01 1.00574243068695e+00 8.36576843261719e+00 1165 
-4.03401941061020e-01 1.07313859462738e+00 8.35812950134277e+00 1166 
5.60043632984161e-01 1.17751252651215e+00 8.36321353912354e+00 1167 
-2.72317022085190e-01 1.25834465026855e+00 8.33282566070557e+00 1168 
2.19191357493401e-01 1.28564620018005e+00 8.25694751739502e+00 1169 
-1.54055997729301e-01 1.34034371376038e+00 8.35785198211670e+00 1170 
5.24492263793945e-01 1.41372978687286e+00 8.32897758483887e+00 1171 
-1.18616020679474e+00 1.58275353908539e+00 8.37866210937500e+00 1172 
7.00639009475708e-01 1.58696460723877e+00 8.35355663299561e+00 1173 
-6.04710914194584e-02 1.67564451694489e+00 8.36070251464844e+00 1174 
-1.22923791408539e-01 1.68182945251465e+00 8.35589122772217e+00 1175 
-1.51787447929382e+00 1.73056530952454e+00 8.36597061157227e+00 1176 
3.65023970603943e-01 1.76725709438324e+00 8.35004806518555e+00 1177 
-1.71002626419067e+00 1.78804516792297e+00 8.36003208160400e+00 1178 
-1.03847622871399e+00 1.90010273456573e+00 8.34346675872803e+00 1179 
-1.93057730793953e-01 2.02519607543945e+00 8.35455989837646e+00 1180 
-5.29555320739746e-01 2.03328108787537e+00 8.35725593566895e+00 1181 
6.68633341789246e-01 2.02376985549927e+00 8.32138919830322e+00 1182 
-1.56732594966888e+00 2.05995941162109e+00 8.36092185974121e+00 1183 
-3.18158805370331e-01 2.07233524322510e+00 8.28422260284424e+00 1184 
-7.69945502281189e-01 2.15050339698792e+00 8.35643291473389e+00 1185 
7.48920381069183e-01 2.29840874671936e+00 8.26363182067871e+00 1187 
5.36439903080463e-02 2.54304885864258e+00 8.28163623809814e+00 1188 
-9.76356089115143e-01 2.57598495483398e+00 8.35020065307617e+00 1189 
-1.15035271644592e+00 2.59492301940918e+00 8.34996223449707e+00 1190 
2.20880791544914e-01 -2.50950670242310e+00 8.31344127655029e+00 1191 
2.14723810553551e-01 -2.50047111511230e+00 8.31347179412842e+00 1192 
-1.80778548121452e-01 -2.32203888893127e+00 8.41434478759766e+00 1193 
-3.23528289794922e-01 -2.28869676589966e+00 8.41124725341797e+00 1194 
-1.25016391277313e+00 -2.27838134765625e+00 8.42205715179443e+00 1195 
-7.87948429584503e-01 -1.94358539581299e+00 8.41962146759033e+00 1196 
-4.38751906156540e-01 -1.54172813892365e+00 8.30962181091309e+00 1197 
-1.68265807628632e+00 -1.51645374298096e+00 8.41708660125732e+00 1198 
-2.47588559985161e-01 -1.32584166526794e+00 8.30283069610596e+00 1199 
-1.34277284145355e+00 -1.31807184219360e+00 8.32081985473633e+00 1200 
3.29225897789001e-01 -1.14558994770050e+00 8.39211845397949e+00 1201 
-2.12672710418701e-01 -6.39570236206055e-01 8.38949012756348e+00 1202 
-8.31834852695465e-01 -6.06028318405151e-01 8.37167644500732e+00 1203 
-3.73918503522873e-01 -2.15134114027023e-01 8.38450622558594e+00 1204 
-1.00421988964081e+00 -1.84168830513954e-01 8.39123821258545e+00 1205 
-3.87466609477997e-01 -1.77083507180214e-01 8.38629722595215e+00 1206 
-1.32987713813782e+00 -2.30530276894569e-02 8.39060497283936e+00 1207 
-1.34758853912354e+00 2.86563131958246e-02 8.39084148406982e+00 1208 
-1.10147607326508e+00 4.12937514483929e-02 8.39154815673828e+00 1209 
1.66109561920166e-01 2.21019268035889e-01 8.30836105346680e+00 1210 
1.35563075542450e-01 5.76865017414093e-01 8.37660312652588e+00 1211 
-1.20473575592041e+00 6.55095517635345e-01 8.37825775146484e+00 1212 
7.93361783027649e-01 6.87291920185089e-01 8.36752986907959e+00 1213 
-2.10179984569550e-01 8.85859966278076e-01 8.37254238128662e+00 1214 
-1.25470733642578e+00 1.10426568984985e+00 8.36923217773438e+00 1215 
-7.53796845674515e-03 1.29851102828979e+00 8.30234622955322e+00 1216 
5.09272553026676e-02 1.64989435672760e+00 8.29400444030762e+00 1217 
-1.72444975376129e+00 1.78649103641510e+00 8.36018371582031e+00 1218 
5.33622860908508e-01 2.13015794754028e+00 8.25449180603027e+00 1219 
-1.22566843032837e+00 2.17456650733948e+00 8.26894760131836e+00 1220 
-2.86473751068115e-01 2.31880402565002e+00 8.35008335113525e+00 1221 
5.47488272190094e-01 2.39220547676086e+00 8.24960327148438e+00 1222 
-1.45306038856506e+00 2.47504115104675e+00 8.35296344757080e+00 1223 
4.54984188079834e-01 -1.30506014823914e+00 8.38124656677246e+00 1224 
-9.99928176403046e-01 -6.10687077045441e-01 8.31887722015381e+00 1225 
-1.63396799564362e+00 -3.52683097124100e-01 8.39031600952148e+00 1226 
-1.05271983146667e+00 -3.12376499176025e-01 8.31588077545166e+00 1227 
6.64233922958374e-01 -2.47939214110374e-01 8.30764389038086e+00 1228 
-7.51447796821594e-01 -3.12609039247036e-02 8.37993812561035e+00 1229 
6.26016497612000e-01 2.69610702991486e-01 8.30629730224609e+00 1230 
4.44154292345047e-01 7.26608335971832e-01 8.27110481262207e+00 1231 
6.22356891632080e-01 8.42351078987122e-01 8.26992797851562e+00 1233 
-6.14000022411346e-01 1.14336550235748e+00 8.38224697113037e+00 1234 
-4.62148576974869e-01 1.15342843532562e+00 8.37896156311035e+00 1235 
2.73421823978424e-01 1.16899490356445e+00 8.26654434204102e+00 1236 
6.76459193229675e-01 1.28365755081177e+00 8.26514816284180e+00 1237 
3.80324721336365e-01 1.91984605789185e+00 8.26478290557861e+00 1239 
-8.10459256172180e-01 2.35728263854980e+00 8.35843753814697e+00 1240 
-1.59418737888336e+00 -9.94456171989441e-01 8.40771865844727e+00 1241 
-8.49843740463257e-01 1.81449091434479e+00 8.31618976593018e+00 1242 
-1.20961177349091e+00 -2.57419133186340e+00 8.43785381317139e+00 1243 
-5.84798097610474e-01 1.63388979434967e+00 8.36585140228271e+00 1245 
-1.02897083759308e+00 2.29500699043274e+00 8.32171344757080e+00 1246 
-2.46740102767944e-01 8.42390596866608e-01 8.37794685363770e+00 1248 
-2.33618676662445e-01 8.41915369033813e-01 8.37717723846436e+00 1249 
-9.48926925659180e-01 7.97918617725372e-01 8.37683105468750e+00 1250 
-1.37622821331024e+00 1.20175993442535e+00 8.37289905548096e+00 1251 
-1.53126955032349e+00 1.66021835803986e+00 8.36756801605225e+00 1252 
-1.58361876010895e+00 2.16313099861145e+00 8.25279712677002e+00 1253 
-5.93299329280853e-01 -2.58241391181946e+00 8.41701793670654e+00 1254 
-1.62656211853027e+00 -1.64011657238007e+00 8.33402633666992e+00 1255 
-1.66101408004761e+00 7.58446335792542e-01 8.38597679138184e+00 1256 
-1.65945732593536e+00 -1.63339745998383e+00 8.33444309234619e+00 1258 
-9.80233490467072e-01 -8.04286837577820e-01 8.30832862854004e+00 1259 
-7.37681567668915e-01 7.20267713069916e-01 8.37396621704102e+00 1260 
-5.99453091621399e-01 1.07461011409760e+00 8.38378810882568e+00 1261 
-9.96425867080688e-01 1.18294560909271e+00 8.29557991027832e+00 1262 
-6.26438736915588e-01 1.20106971263885e+00 8.37995243072510e+00 1263 
-5.74997901916504e-01 1.00241732597351e+00 8.38500213623047e+00 1264 
-3.79092335700989e-01 1.35751199722290e+00 8.37395191192627e+00 1265 
-1.29280555248260e+00 1.62859964370728e+00 8.38131523132324e+00 1266 
-8.28742682933807e-01 -1.40262126922607e+00 8.40873146057129e+00 1267 
-6.72695338726044e-01 -1.18666517734528e+00 8.40505695343018e+00 1268 
-1.67701208591461e+00 1.02735269069672e+00 8.25936698913574e+00 1269 
-4.72624570131302e-01 1.63871610164642e+00 8.37457942962646e+00 1270 
-4.88388329744339e-01 -2.60504436492920e+00 8.41901493072510e+00 1271 
