ply
format ascii 1.0
element vertex 584
property double x
property double y
property double size
property short id
end_header
3.75138769531250e+03 1.00036660156250e+04 3.87463903427124e+00 20 
3.95055664062500e+03 1.05067470703125e+04 4.51323509216309e+00 21 
2.26267578125000e+03 1.06468750000000e+04 4.32482004165649e+00 22 
4.57609716796875e+03 1.12326113281250e+04 4.15824747085571e+00 28 
3.74481079101562e+03 1.00263798828125e+04 4.67463064193726e+00 32 
3.95492846679688e+03 1.04908613281250e+04 3.89729547500610e+00 33 
5.97668164062500e+03 1.27627822265625e+04 8.35332298278809e+00 54 
5.48018945312500e+03 1.28391552734375e+04 8.67567825317383e+00 55 
6.83868286132812e+02 1.19159003906250e+04 7.16991186141968e+00 58 
6.65619934082031e+02 1.19406474609375e+04 8.57046031951904e+00 59 
5.10113134765625e+03 1.19233583984375e+04 7.94087028503418e+00 60 
3.84779101562500e+03 1.28162431640625e+04 7.48654174804688e+00 61 
4.99451855468750e+03 1.03142812500000e+04 2.03958625793457e+01 74 
2.93229492187500e+03 1.18415976562500e+04 5.28606700897217e+00 87 
6.13538623046875e+03 9.73396289062500e+03 6.31395912170410e+00 94 
6.24369091796875e+03 1.12999052734375e+04 6.48657608032227e+00 96 
5.31247705078125e+03 1.14201298828125e+04 6.25927209854126e+00 97 
3.96311987304688e+03 1.24089179687500e+04 6.62479209899902e+00 99 
5.59066308593750e+03 1.27138007812500e+04 6.84293079376221e+00 101 
3.17168212890625e+03 9.91907031250000e+03 4.30750322341919e+00 108 
5.60259082031250e+03 1.03460527343750e+04 3.83548760414124e+00 109 
6.22017382812500e+03 1.14126591796875e+04 5.18436861038208e+00 111 
3.58502368164062e+03 1.21334482421875e+04 4.13842391967773e+00 113 
5.74827636718750e+03 1.27119794921875e+04 5.56302642822266e+00 115 
5.79263476562500e+03 1.27217265625000e+04 5.38066911697388e+00 116 
5.40937792968750e+03 1.04397988281250e+04 3.63504123687744e+00 129 
3.11223803710938e+03 1.05500029296875e+04 5.76950788497925e+00 130 
6.96873901367188e+02 1.13624775390625e+04 3.82468414306641e+00 131 
5.27028515625000e+03 1.13989589843750e+04 6.09916019439697e+00 133 
4.49282958984375e+03 1.16739179687500e+04 5.14304780960083e+00 134 
6.09460021972656e+02 1.20863212890625e+04 4.28087663650513e+00 135 
5.37317626953125e+03 1.28546582031250e+04 5.32464694976807e+00 136 
3.48949975585938e+03 9.84608398437500e+03 5.32656669616699e+00 148 
8.35048034667969e+02 1.14890478515625e+04 5.25512981414795e+00 153 
5.09034863281250e+03 1.13767978515625e+04 6.01988029479980e+00 154 
2.69840136718750e+03 1.26711699218750e+04 6.45538663864136e+00 156 
5.03862744140625e+03 1.27937109375000e+04 1.10160417556763e+01 166 
5.28198144531250e+03 1.12056865234375e+04 5.44460868835449e+00 173 
3.82802490234375e+03 1.13799570312500e+04 6.93808746337891e+00 174 
5.52697851562500e+03 1.26968417968750e+04 4.44873189926147e+00 176 
5.89572705078125e+03 9.46998828125000e+03 3.79974651336670e+00 184 
3.09292553710938e+03 9.81929199218750e+03 4.65043115615845e+00 185 
5.83675244140625e+03 9.83936035156250e+03 5.13994121551514e+00 187 
5.77274609375000e+03 1.05773037109375e+04 4.18097686767578e+00 188 
1.07795739746094e+03 1.12084892578125e+04 5.23547983169556e+00 191 
3.84389965820312e+03 1.13601728515625e+04 5.49308443069458e+00 192 
6.22495361328125e+03 1.13838876953125e+04 5.89676904678345e+00 194 
3.58536694335938e+03 1.20546386718750e+04 6.42912435531616e+00 209 
7.87119921875000e+03 1.06607128906250e+04 1.34209928512573e+01 210 
6.43377148437500e+03 7.79847265625000e+03 4.20511722564697e+00 226 
5.59097216796875e+03 1.26981855468750e+04 4.00922060012817e+00 228 
5.40737011718750e+03 1.25892675781250e+04 1.51153526306152e+01 236 
8.24220019531250e+03 1.26753886718750e+04 5.69377708435059e+00 240 
8.14467089843750e+03 1.09943896484375e+04 6.28658151626587e+00 243 
6.74590234375000e+03 1.10947675781250e+04 8.76819801330566e+00 246 
4.71811181640625e+03 9.70500000000000e+03 8.23761749267578e+00 259 
4.57112060546875e+03 1.22588144531250e+04 8.43109893798828e+00 268 
7.56137451171875e+03 1.25690351562500e+04 1.88828468322754e+01 280 
3.13071923828125e+03 1.07067470703125e+04 4.12888526916504e+00 289 
1.36925744628906e+03 1.09505507812500e+04 4.83072185516357e+00 291 
8.81414746093750e+03 1.23878544921875e+04 4.42938709259033e+00 295 
5.94631054687500e+03 1.10145771484375e+04 5.53350687026978e+00 308 
7.36289404296875e+03 1.09548046875000e+04 5.85993289947510e+00 309 
7.44480859375000e+03 9.61617187500000e+03 5.14254713058472e+00 319 
4.32940734863281e+02 1.05714570312500e+04 4.14783143997192e+00 320 
7.71408447265625e+03 1.05043691406250e+04 5.33676195144653e+00 323 
3.56113305664062e+03 1.06007812500000e+04 5.14170408248901e+00 324 
5.85444238281250e+03 1.06109541015625e+04 5.13301753997803e+00 325 
4.42380761718750e+03 9.72267480468750e+03 4.19169759750366e+00 347 
6.26900537109375e+03 9.76850097656250e+03 5.41959047317505e+00 348 
6.69894677734375e+03 9.78459082031250e+03 3.96361351013184e+00 349 
1.21680725097656e+03 1.04829414062500e+04 5.02718305587769e+00 351 
5.84085644531250e+03 1.15032744140625e+04 5.43368005752563e+00 356 
7.43345751953125e+03 9.39574707031250e+03 6.92394113540649e+00 372 
7.42201513671875e+03 9.61810937500000e+03 6.09277629852295e+00 374 
6.16046386718750e+03 9.74997363281250e+03 6.17576932907104e+00 375 
8.51860546875000e+03 9.95613574218750e+03 6.06311559677124e+00 376 
7.83876123046875e+03 4.05587695312500e+03 5.76150655746460e+00 377 
8.61404882812500e+03 1.16259570312500e+04 5.56867742538452e+00 379 
8.13169384765625e+03 1.15782509765625e+04 8.29503822326660e+00 391 
7.42202783203125e+03 9.59092187500000e+03 6.19407510757446e+00 397 
7.36135986328125e+03 1.08177792968750e+04 5.80481958389282e+00 400 
6.39535449218750e+03 1.12056992187500e+04 5.60124921798706e+00 401 
6.74556152343750e+03 1.21432822265625e+04 5.59773302078247e+00 402 
3.19150708007812e+03 9.84848535156250e+03 4.41791152954102e+00 409 
6.95077832031250e+03 9.80769335937500e+03 5.99610853195190e+00 410 
7.78155615234375e+03 9.94259570312500e+03 5.66611957550049e+00 412 
5.74024218750000e+03 1.05570351562500e+04 5.28962659835815e+00 413 
5.90513769531250e+03 1.08512626953125e+04 5.29750919342041e+00 415 
7.34007519531250e+03 1.09018027343750e+04 5.09127664566040e+00 416 
7.36102539062500e+03 1.08984218750000e+04 5.41219615936279e+00 417 
7.43341308593750e+03 9.42848535156250e+03 6.91624355316162e+00 436 
8.23873046875000e+03 9.48467089843750e+03 6.37850761413574e+00 438 
6.92088427734375e+03 9.81949023437500e+03 5.14030694961548e+00 439 
7.42225976562500e+03 9.88355859375000e+03 6.45256662368774e+00 440 
8.51872070312500e+03 1.05489306640625e+04 6.49568080902100e+00 443 
6.06760595703125e+03 1.08084912109375e+04 6.96984052658081e+00 444 
7.62639697265625e+03 1.14048935546875e+04 6.61134338378906e+00 447 
4.35596093750000e+03 1.16579550781250e+04 6.32889556884766e+00 448 
8.50217382812500e+03 1.15418261718750e+04 5.99574518203735e+00 449 
8.78410644531250e+03 1.23815566406250e+04 6.41197538375854e+00 452 
7.94798779296875e+03 1.06377988281250e+04 1.03699741363525e+01 457 
7.88032275390625e+03 1.08114599609375e+04 6.14024496078491e+00 472 
7.94560449218750e+03 1.08290507812500e+04 9.97720909118652e+00 473 
6.12501953125000e+03 9.60304882812500e+03 6.84545326232910e+00 480 
7.02759082031250e+03 9.50892382812500e+03 9.04152011871338e+00 485 
8.11943164062500e+03 1.16008505859375e+04 3.75141263008118e+00 496 
3.96993408203125e+03 1.23852773437500e+04 6.04066133499146e+00 497 
8.52090820312500e+03 9.63362011718750e+03 6.61176490783691e+00 504 
8.62236230468750e+03 9.92078710937500e+03 5.91618680953979e+00 505 
2.83545874023438e+03 1.06508066406250e+04 5.82329177856445e+00 506 
5.62279687500000e+03 1.26908896484375e+04 5.10951900482178e+00 526 
4.67768701171875e+03 1.06578232421875e+04 1.22758560180664e+01 538 
7.12918261718750e+03 9.87620019531250e+03 5.98088788986206e+00 541 
6.60292724609375e+03 1.04338798828125e+04 6.14979457855225e+00 542 
5.92283642578125e+03 1.11236230468750e+04 5.47449159622192e+00 543 
3.73737329101562e+03 1.21826816406250e+04 6.27729034423828e+00 545 
3.85549780273438e+03 1.27880146484375e+04 6.58857250213623e+00 546 
3.99583789062500e+03 1.25220029296875e+04 5.02686309814453e+00 551 
8.32167089843750e+03 9.48270605468750e+03 6.70561790466309e+00 555 
6.70342675781250e+03 1.12557900390625e+04 5.17506790161133e+00 559 
4.01699157714844e+02 1.27184628906250e+04 9.74521732330322e+00 563 
7.92675683593750e+03 1.13641035156250e+04 3.95332098007202e+00 564 
8.24784375000000e+03 1.26933837890625e+04 7.31711912155151e+00 565 
5.59216162109375e+03 1.26868398437500e+04 5.78015232086182e+00 566 
3.81340014648438e+03 1.04853183593750e+04 4.23647308349609e+00 567 
1.06413781738281e+03 4.15853710937500e+03 4.04434347152710e+00 568 
7.84729248046875e+03 8.88989257812500e+03 5.78756570816040e+00 569 
5.83365332031250e+03 1.05891162109375e+04 4.15329122543335e+00 570 
5.76871337890625e+03 6.72892138671875e+03 3.84771442413330e+00 576 
2.69432324218750e+03 9.27777343750000e+03 4.75578451156616e+00 583 
1.55483288574219e+03 1.21233964843750e+04 7.60831546783447e+00 589 
4.07379711914062e+03 1.01032656250000e+04 4.22585964202881e+00 590 
5.53092480468750e+03 9.25176367187500e+03 4.84317064285278e+00 591 
4.14707226562500e+03 7.69195117187500e+03 5.33743667602539e+00 592 
2.47727685546875e+03 1.05766640625000e+04 1.17805023193359e+01 600 
4.89552032470703e+02 1.27749541015625e+04 9.39017105102539e+00 604 
2.96911254882812e+03 8.87753710937500e+03 6.41614341735840e+00 614 
2.60778735351562e+03 1.01331767578125e+04 1.36823558807373e+01 619 
4.73490771484375e+03 7.13335449218750e+03 1.61090354919434e+01 620 
2.11801586914062e+03 1.09701601562500e+04 1.46017351150513e+01 621 
4.18291113281250e+03 6.64668017578125e+03 1.62697505950928e+01 622 
2.16827539062500e+03 1.07928994140625e+04 1.50436344146729e+01 624 
2.70591601562500e+03 9.77901953125000e+03 1.37117824554443e+01 625 
5.05383056640625e+03 1.02805810546875e+04 2.19937438964844e+01 629 
4.04317163085938e+03 1.02112529296875e+04 3.26104621887207e+01 632 
4.40345703125000e+03 6.82271582031250e+03 3.91044464111328e+01 634 
3.56448852539062e+03 1.05887675781250e+04 3.75385046005249e+00 641 
4.67767236328125e+03 8.75391113281250e+03 4.79525184631348e+00 644 
3.79283300781250e+03 6.08192773437500e+03 4.83898973464966e+00 649 
1.85794055175781e+03 6.20065917968750e+03 4.14812850952148e+00 650 
4.85105224609375e+03 5.25912402343750e+03 3.88646602630615e+00 651 
5.50873583984375e+03 9.06793359375000e+03 6.31941032409668e+00 653 
5.46570507812500e+03 1.28413281250000e+04 4.01503133773804e+00 670 
2.09497338867188e+03 1.19128623046875e+04 3.69316315650940e+00 688 
3.12179736328125e+03 1.07119589843750e+04 4.16084098815918e+00 691 
1.57389050292969e+03 7.96853222656250e+03 3.96916437149048e+00 693 
6.93830017089844e+02 1.15890449218750e+04 4.69662284851074e+00 706 
7.62021789550781e+01 9.27840527343750e+03 4.84005355834961e+00 716 
5.46383203125000e+03 7.51050732421875e+03 5.21414899826050e+00 721 
4.45962451171875e+03 6.18073486328125e+03 4.93378782272339e+00 729 
2.64480395507812e+03 5.68506933593750e+03 5.62761878967285e+00 732 
2.57938525390625e+03 5.69334521484375e+03 4.50847339630127e+00 733 
3.42330957031250e+03 1.27977041015625e+04 6.80330562591553e+00 750 
1.35395397949219e+03 1.22005576171875e+04 6.07640981674194e+00 751 
4.07212695312500e+03 9.42948730468750e+03 6.25232791900635e+00 753 
4.51932128906250e+03 8.08354589843750e+03 6.21957063674927e+00 756 
1.59819470214844e+03 7.99017529296875e+03 6.11008691787720e+00 757 
3.29815112304688e+03 5.52540136718750e+03 6.49396514892578e+00 760 
2.63198291015625e+03 1.29180810546875e+04 6.01281118392944e+00 780 
2.64052343750000e+03 1.28853154296875e+04 5.12710332870483e+00 781 
3.38325170898438e+03 1.22770976562500e+04 4.06479263305664e+00 782 
5.34518603515625e+03 1.15095781250000e+04 4.83191967010498e+00 785 
5.10187402343750e+03 1.14548544921875e+04 5.48002338409424e+00 786 
4.66075195312500e+03 1.11310869140625e+04 5.14359617233276e+00 787 
3.77682006835938e+03 1.06542509765625e+04 5.42737913131714e+00 789 
4.66525537109375e+03 9.88575292968750e+03 5.26676177978516e+00 792 
4.75573925781250e+03 8.53860253906250e+03 5.50911521911621e+00 801 
3.57151489257812e+02 8.53000488281250e+03 4.33313322067261e+00 802 
5.74609277343750e+03 7.87147119140625e+03 5.37638711929321e+00 805 
3.40101464843750e+03 7.71832324218750e+03 4.81988811492920e+00 808 
4.82110644531250e+03 7.13193603515625e+03 5.58176183700562e+00 812 
2.15148754882812e+03 6.33313525390625e+03 4.89722251892090e+00 824 
4.02631274414062e+03 6.06255859375000e+03 5.43462514877319e+00 827 
3.32094506835938e+03 7.64100634765625e+03 1.41234922409058e+01 841 
3.53999047851562e+03 7.56126367187500e+03 1.37267446517944e+01 842 
3.58913281250000e+03 1.19900976562500e+04 8.83154582977295e+00 853 
2.95732055664062e+03 9.21521777343750e+03 8.21096420288086e+00 855 
3.16442333984375e+03 8.80130664062500e+03 8.65930175781250e+00 856 
3.18514941406250e+03 8.67175585937500e+03 9.31192493438721e+00 857 
1.41482031250000e+03 7.50044873046875e+03 8.52627468109131e+00 861 
4.37935107421875e+03 5.92282421875000e+03 7.60728025436401e+00 865 
4.75415136718750e+03 5.74126464843750e+03 8.97770690917969e+00 866 
1.53390124511719e+03 8.72875097656250e+03 1.36521663665771e+01 869 
2.98222656250000e+03 7.71487939453125e+03 1.10227413177490e+01 870 
5.40155664062500e+03 1.28436689453125e+04 7.52378797531128e+00 882 
3.09969262695312e+03 9.20054394531250e+03 6.79616403579712e+00 884 
1.96419580078125e+03 9.24209667968750e+03 7.86184453964233e+00 885 
3.08329272460938e+03 8.52049804687500e+03 1.16566152572632e+01 886 
2.77013403320312e+03 8.12812939453125e+03 1.22862415313721e+01 887 
1.10813171386719e+03 8.30622167968750e+03 9.66830348968506e+00 888 
6.39632507324219e+02 8.03126464843750e+03 9.01251125335693e+00 889 
3.52810742187500e+03 5.57936523437500e+03 8.10966300964355e+00 893 
3.14939233398438e+03 9.25398632812500e+03 1.19592161178589e+01 895 
1.62300079345703e+02 7.85544287109375e+03 1.24979763031006e+01 897 
4.71274169921875e+03 9.72744628906250e+03 8.89105892181396e+00 909 
3.18102246093750e+03 9.10974023437500e+03 9.05911731719971e+00 912 
1.02137768554688e+03 8.57764453125000e+03 1.06822052001953e+01 914 
2.39906762695312e+03 8.08779003906250e+03 9.33180522918701e+00 915 
1.53349194335938e+03 7.97117822265625e+03 6.90750360488892e+00 916 
6.59539733886719e+02 6.85968261718750e+03 7.22541904449463e+00 917 
5.17609619140625e+03 8.89342968750000e+03 1.40616092681885e+01 923 
5.08404345703125e+03 8.87012792968750e+03 1.40073699951172e+01 924 
2.96023730468750e+03 8.56979394531250e+03 1.18502311706543e+01 925 
3.36966943359375e+03 7.62067724609375e+03 1.30146455764771e+01 926 
2.71861352539062e+03 7.87295068359375e+03 1.48589992523193e+01 932 
4.63772998046875e+03 7.38098974609375e+03 1.78392982482910e+01 933 
4.44851611328125e+03 6.90422998046875e+03 1.51714820861816e+01 935 
2.37958715820312e+03 8.08930859375000e+03 2.38533668518066e+01 939 
3.95970385742188e+03 7.64211425781250e+03 1.72658863067627e+01 940 
3.53012915039062e+03 7.46905126953125e+03 1.94340705871582e+01 941 
2.95844262695312e+03 5.24484667968750e+03 2.26887722015381e+01 943 
3.00090454101562e+03 7.65590039062500e+03 1.51256074905396e+01 948 
1.56163269042969e+03 7.09499316406250e+03 2.48525409698486e+01 950 
2.67517456054688e+03 7.96460351562500e+03 2.16621131896973e+01 953 
3.61985668945312e+03 6.81685009765625e+03 8.53958129882812e+01 959 
2.57409985351562e+03 9.74616210937500e+03 7.03600158691406e+01 961 
1.39960754394531e+03 7.86041406250000e+03 6.61265487670898e+01 962 
2.32792871093750e+03 1.21188291015625e+04 4.76353502273560e+00 986 
5.86675976562500e+03 1.08454003906250e+04 5.24555826187134e+00 990 
4.51895507812500e+03 8.75551757812500e+03 3.80495953559875e+00 1005 
5.60765283203125e+03 7.87118115234375e+03 5.34980154037476e+00 1009 
5.78110498046875e+03 7.81413330078125e+03 5.39910936355591e+00 1011 
1.58545568847656e+03 7.25678857421875e+03 3.43905615806580e+00 1018 
4.52538574218750e+03 6.17455859375000e+03 4.25480270385742e+00 1025 
4.36748632812500e+03 6.19115429687500e+03 4.99440240859985e+00 1026 
4.51232519531250e+03 5.91053662109375e+03 4.80885076522827e+00 1027 
3.74718994140625e+03 1.06421044921875e+04 5.63874530792236e+00 1050 
3.52640454101562e+03 1.06002304687500e+04 6.33789539337158e+00 1051 
3.44612030029297e+02 1.09179892578125e+04 6.55787706375122e+00 1052 
2.86172509765625e+03 9.67217773437500e+03 6.65324735641479e+00 1053 
4.04610571289062e+03 9.42371484375000e+03 6.65438413619995e+00 1055 
5.37466210937500e+03 1.28299003906250e+04 6.32704877853394e+00 1093 
4.44428320312500e+03 1.16588232421875e+04 3.93568158149719e+00 1096 
2.71919116210938e+03 1.29275087890625e+04 6.42236423492432e+00 1102 
3.43454809570312e+03 1.27608134765625e+04 6.37118101119995e+00 1103 
2.18154394531250e+03 1.24299960937500e+04 6.28218460083008e+00 1104 
4.65444970703125e+03 1.11535732421875e+04 6.11590337753296e+00 1105 
1.65974707031250e+03 1.01406347656250e+04 5.46281957626343e+00 1108 
5.29827001953125e+03 5.77742285156250e+03 5.22269392013550e+00 1116 
4.84786669921875e+03 5.26894970703125e+03 5.10679912567139e+00 1117 
3.42649951171875e+03 1.23596708984375e+04 4.94041824340820e+00 1146 
2.31378369140625e+03 1.21683916015625e+04 3.67877793312073e+00 1148 
2.71042907714844e+02 1.11272070312500e+04 4.38903760910034e+00 1152 
5.83673095703125e+03 9.21354101562500e+03 4.61213588714600e+00 1160 
2.69764160156250e+03 8.75014160156250e+03 3.87966251373291e+00 1166 
2.33055004882812e+03 8.32969726562500e+03 4.51200056076050e+00 1168 
3.48547637939453e+02 8.12422119140625e+03 4.10307455062866e+00 1171 
1.97772399902344e+03 6.46986230468750e+03 5.82695341110229e+00 1180 
5.32285449218750e+03 6.08032519531250e+03 4.91129446029663e+00 1183 
4.20522412109375e+03 5.54683056640625e+03 4.76081848144531e+00 1186 
3.76594018554688e+03 4.95269433593750e+03 5.09592056274414e+00 1189 
4.11608349609375e+03 1.27781845703125e+04 5.99703598022461e+00 1203 
2.91210839843750e+03 1.19051210937500e+04 6.08449983596802e+00 1204 
4.44525292968750e+03 1.16905683593750e+04 5.54063844680786e+00 1205 
2.93688403320312e+03 1.18077871093750e+04 5.97424507141113e+00 1206 
5.20612841796875e+03 1.12256855468750e+04 5.94106864929199e+00 1207 
5.23780761718750e+03 1.10951630859375e+04 5.50048685073853e+00 1208 
1.49764196777344e+03 1.00772285156250e+04 5.12444543838501e+00 1211 
4.77137597656250e+03 8.48532324218750e+03 5.89640665054321e+00 1215 
4.46043408203125e+03 5.86626513671875e+03 7.26224517822266e+00 1220 
2.14063452148438e+03 5.73334667968750e+03 6.46610879898071e+00 1221 
4.95221093750000e+03 5.09214794921875e+03 6.27880907058716e+00 1223 
6.02438281250000e+03 1.19706113281250e+04 1.03902769088745e+01 1226 
3.31802886962891e+02 1.09687607421875e+04 9.68607044219971e+00 1230 
3.05585717773438e+03 9.24389843750000e+03 9.72119140625000e+00 1232 
1.99049209594727e+02 9.56678906250000e+03 1.00654811859131e+01 1233 
2.82848144531250e+03 8.53694042968750e+03 1.26707353591919e+01 1235 
9.85658874511719e+02 8.68300000000000e+03 8.38574886322021e+00 1236 
3.61951196289062e+03 6.83894238281250e+03 3.76064586639404e+00 1242 
3.52940551757812e+03 6.95507714843750e+03 9.23410129547119e+00 1244 
3.95396386718750e+03 5.62233935546875e+03 2.01750411987305e+01 1246 
4.54330224609375e+03 6.77701367187500e+03 1.22233057022095e+01 1247 
2.37055102539062e+03 9.34434375000000e+03 8.41882705688477e+00 1248 
2.33919824218750e+03 9.34847949218750e+03 7.07290315628052e+00 1249 
5.34780078125000e+03 5.81189892578125e+03 6.64428329467773e+00 1253 
5.84059912109375e+03 9.23862011718750e+03 6.75391054153442e+00 1256 
2.95675219726562e+03 8.86755371093750e+03 6.59901380538940e+00 1257 
3.59378588867188e+03 9.53723535156250e+03 7.79345178604126e+00 1260 
4.11743261718750e+03 8.36329199218750e+03 2.04910926818848e+01 1262 
3.21689697265625e+03 8.38412304687500e+03 1.88486347198486e+01 1263 
3.13652246093750e+03 8.87958496093750e+03 1.36636009216309e+01 1264 
4.74642626953125e+03 7.19403564453125e+03 3.88443489074707e+01 1266 
5.83624414062500e+03 8.60437500000000e+03 3.98287248611450e+00 1269 
4.13878125000000e+03 9.89191015625000e+03 5.31335973739624e+00 1273 
5.18053173828125e+03 9.06639160156250e+03 3.70326542854309e+00 1276 
3.87406591796875e+03 8.71143261718750e+03 4.90853691101074e+00 1277 
1.96738671875000e+03 1.26093720703125e+04 5.09300661087036e+00 1278 
1.98893627929688e+03 9.77757226562500e+03 5.46897649765015e+00 1279 
3.82190991210938e+03 8.79696582031250e+03 5.01047849655151e+00 1280 
3.84415478515625e+03 8.78692773437500e+03 1.58180780410767e+01 1281 
1.22496069335938e+03 6.93435498046875e+03 1.81434440612793e+01 1282 
4.95285058593750e+03 8.09115576171875e+03 1.67791957855225e+01 1283 
3.86652124023438e+03 8.68702050781250e+03 1.60168361663818e+01 1284 
3.61551733398438e+03 6.99347851562500e+03 2.27200832366943e+01 1285 
4.59358300781250e+03 1.12814814453125e+04 3.63420629501343e+00 1286 
5.34459765625000e+03 5.58176562500000e+03 6.41147279739380e+00 1287 
1.87790954589844e+03 9.99408789062500e+03 3.91832613945007e+00 1288 
6.56587036132812e+02 5.18114306640625e+03 3.74339270591736e+00 1289 
2.83729321289062e+03 1.09000517578125e+04 5.25801134109497e+00 1290 
3.85989257812500e+03 8.66931250000000e+03 5.93681764602661e+00 1291 
3.11801000976562e+03 1.05275097656250e+04 5.19732427597046e+00 1292 
1.68615753173828e+02 9.97631542968750e+03 4.11601495742798e+00 1293 
5.44847656250000e+03 5.47509179687500e+03 4.95428943634033e+00 1294 
1.52824755859375e+03 1.20928066406250e+04 1.23624925613403e+01 1295 
6.02837028503418e+01 6.14508789062500e+03 6.16676330566406e+00 1296 
5.60663574218750e+03 1.03316445312500e+04 3.79597973823547e+00 1297 
1.60799804687500e+03 7.96772314453125e+03 5.12434339523315e+00 1298 
4.07420849609375e+03 7.76512548828125e+03 4.64610099792480e+00 1299 
4.67725390625000e+03 9.85407617187500e+03 9.21461963653564e+00 1300 
3.15200854492188e+03 8.86135058593750e+03 7.81007289886475e+00 1301 
3.56791967773438e+03 5.51510107421875e+03 8.17144775390625e+00 1302 
3.11714160156250e+03 5.46485986328125e+03 8.33630752563477e+00 1303 
3.45974096679688e+03 5.67352392578125e+03 9.23122596740723e+00 1304 
4.03355297851562e+03 1.03392958984375e+04 1.01130847930908e+01 1305 
1.00197845458984e+03 8.64978710937500e+03 1.20492258071899e+01 1306 
3.06978320312500e+03 9.63199316406250e+03 2.03904609680176e+01 1307 
3.85909643554688e+03 8.85493359375000e+03 2.24305744171143e+01 1308 
2.58214184570312e+03 8.05614306640625e+03 2.77646217346191e+01 1309 
5.20440527343750e+03 1.27944169921875e+04 1.53179016113281e+01 1310 
1.68825524902344e+03 8.01321191406250e+03 4.81343936920166e+00 1311 
5.16173437500000e+03 7.61716113281250e+03 3.75720071792603e+00 1312 
2.72471313476562e+02 6.99832958984375e+03 5.32417964935303e+00 1313 
5.39729296875000e+03 1.28160136718750e+04 3.88406944274902e+00 1314 
6.03145828247070e+01 1.27331708984375e+04 5.52439832687378e+00 1315 
4.71477343750000e+03 9.73590039062500e+03 3.97539424896240e+00 1316 
3.18125341796875e+03 9.88373144531250e+03 4.63832902908325e+00 1317 
2.28699560546875e+03 8.48448730468750e+03 3.97969222068787e+00 1318 
4.64836718750000e+03 1.16013647460938e+03 4.36150932312012e+00 1319 
5.20785009765625e+03 1.13989462890625e+04 6.42783164978027e+00 1320 
1.24489624023438e+03 8.73246582031250e+03 6.87411165237427e+00 1321 
5.44063037109375e+03 7.50382421875000e+03 7.23380327224731e+00 1322 
2.35931958007812e+03 8.09855273437500e+03 8.58780002593994e+00 1323 
4.19530908203125e+03 5.57358349609375e+03 8.08714485168457e+00 1324 
6.96377441406250e+03 7.23709179687500e+03 1.22829256057739e+01 1327 
5.06518701171875e+03 9.43783691406250e+03 1.46576652526855e+01 1330 
7.05529980468750e+03 7.25442871093750e+03 1.60085411071777e+01 1331 
7.61269726562500e+03 5.84207128906250e+03 2.35270633697510e+01 1333 
7.78039306640625e+03 8.32221191406250e+03 2.06022605895996e+01 1334 
6.58780224609375e+03 7.39328906250000e+03 1.93986434936523e+01 1336 
6.31695458984375e+03 7.44461035156250e+03 1.55130355834961e+02 1337 
6.68842382812500e+03 1.28224218750000e+04 4.01754045486450e+00 1341 
3.59751147460938e+03 9.51894628906250e+03 3.99142169952393e+00 1343 
6.03287548828125e+03 7.79627539062500e+03 3.94316196441650e+00 1347 
7.01832568359375e+03 7.03814453125000e+03 4.60058498382568e+00 1348 
7.95089062500000e+03 6.38129199218750e+03 4.26763963699341e+00 1350 
8.10933398437500e+03 1.20881220703125e+04 4.29225969314575e+00 1355 
6.94897851562500e+03 9.81923339843750e+03 3.84112048149109e+00 1356 
7.08710400390625e+03 7.80260400390625e+03 3.87536859512329e+00 1368 
8.01155664062500e+03 8.71814843750000e+03 6.60877895355225e+00 1376 
2.76442114257812e+03 1.24069912109375e+04 3.99460792541504e+00 1380 
4.44661621093750e+03 1.16751357421875e+04 5.35130023956299e+00 1381 
6.13668408203125e+03 7.73738818359375e+03 4.47665357589722e+00 1384 
7.62981933593750e+03 9.09234179687500e+03 6.36781883239746e+00 1391 
7.87779003906250e+03 1.05572001953125e+04 1.21984052658081e+01 1392 
7.07532519531250e+03 8.55610644531250e+03 1.28573246002197e+01 1394 
7.82344580078125e+03 6.85974853515625e+03 1.49194078445435e+01 1395 
8.06579345703125e+03 8.48811718750000e+03 1.04748601913452e+01 1396 
7.30148779296875e+03 8.55845117187500e+03 8.88178730010986e+00 1397 
7.01822412109375e+03 7.26079101562500e+03 1.01537132263184e+01 1399 
6.12852978515625e+03 4.74283935546875e+03 6.56888723373413e+00 1401 
2.31524951171875e+03 8.20848339843750e+03 1.42435665130615e+01 1402 
7.87272705078125e+03 6.40016210937500e+03 7.53416156768799e+00 1406 
7.04130322265625e+03 7.29201855468750e+03 1.22130479812622e+01 1409 
7.02865722656250e+03 9.30797558593750e+03 8.87076473236084e+00 1412 
3.18954296875000e+03 8.62515820312500e+03 8.63447856903076e+00 1413 
7.25681494140625e+03 7.72361132812500e+03 1.17750921249390e+01 1414 
7.95337548828125e+03 6.40018652343750e+03 8.02648639678955e+00 1415 
7.69037255859375e+03 4.85825146484375e+03 9.28812694549561e+00 1418 
7.43249072265625e+03 7.83773242187500e+03 2.17654571533203e+01 1422 
7.67639257812500e+03 7.74375537109375e+03 1.85048122406006e+01 1425 
3.18478198242188e+03 8.97699316406250e+03 1.41257934570312e+01 1426 
7.54916650390625e+03 5.89679882812500e+03 1.73305168151855e+01 1427 
7.99361669921875e+03 7.65854394531250e+03 2.57140731811523e+01 1429 
6.05078369140625e+03 6.20150390625000e+03 2.80476837158203e+01 1431 
7.29879687500000e+03 1.25658310546875e+04 4.79760074615479e+00 1448 
6.73573486328125e+03 1.19795058593750e+04 5.56033182144165e+00 1450 
6.68018017578125e+03 1.19686455078125e+04 5.30404472351074e+00 1451 
7.02874072265625e+03 7.05430468750000e+03 5.21282625198364e+00 1456 
8.06305957031250e+03 6.38887841796875e+03 5.32052040100098e+00 1458 
6.46503271484375e+03 5.37792968750000e+03 5.54853534698486e+00 1462 
7.85708447265625e+03 4.83986279296875e+03 5.44890403747559e+00 1465 
7.82929687500000e+03 4.84619335937500e+03 5.63115739822388e+00 1466 
5.83611328125000e+03 2.27972216796875e+03 4.14737749099731e+00 1468 
8.43906542968750e+03 9.40825195312500e+03 6.43599748611450e+00 1471 
6.70332714843750e+03 9.06999804687500e+03 6.40982484817505e+00 1472 
6.16882177734375e+03 9.07407226562500e+03 6.38301563262939e+00 1473 
4.03816748046875e+03 8.66378417968750e+03 6.75783395767212e+00 1474 
8.05577001953125e+03 7.65046093750000e+03 5.74409437179565e+00 1476 
7.35503857421875e+03 1.19319697265625e+04 5.72907924652100e+00 1493 
6.97980468750000e+03 1.19434931640625e+04 4.54046201705933e+00 1494 
8.09414257812500e+03 9.82309375000000e+03 5.14261054992676e+00 1499 
8.03662988281250e+03 7.02284863281250e+03 4.45519208908081e+00 1502 
8.11576660156250e+03 6.39118652343750e+03 5.48822402954102e+00 1505 
6.47989648437500e+03 6.53322900390625e+03 5.35776042938232e+00 1506 
6.75058203125000e+03 1.21196250000000e+04 6.16626548767090e+00 1514 
8.31969531250000e+03 9.27783105468750e+03 5.75481843948364e+00 1515 
7.89345263671875e+03 7.41095263671875e+03 6.58141183853149e+00 1517 
6.59668896484375e+03 6.51366845703125e+03 5.91024208068848e+00 1519 
6.59261425781250e+03 6.48517724609375e+03 6.70689010620117e+00 1520 
7.13186035156250e+03 6.40659082031250e+03 6.30442619323730e+00 1521 
7.17027001953125e+03 6.32672119140625e+03 5.71599388122559e+00 1522 
7.13502148437500e+03 4.82099951171875e+03 6.07905340194702e+00 1523 
6.34544482421875e+03 4.92166992187500e+03 6.49251604080200e+00 1524 
6.35327490234375e+03 2.55240698242188e+03 5.03851890563965e+00 1540 
6.70698925781250e+03 1.19737236328125e+04 5.67313623428345e+00 1541 
6.13013476562500e+03 1.14675429687500e+04 5.42560529708862e+00 1542 
6.88774755859375e+03 1.12875341796875e+04 4.55519390106201e+00 1543 
6.93043945312500e+03 1.05366152343750e+04 6.07580900192261e+00 1544 
6.38370361328125e+03 1.02311406250000e+04 3.84105563163757e+00 1546 
7.84061914062500e+03 9.02981542968750e+03 4.04330062866211e+00 1547 
7.82249707031250e+03 8.99990820312500e+03 5.38387489318848e+00 1548 
6.20112109375000e+03 9.13194921875000e+03 4.47457170486450e+00 1549 
2.26373559570312e+03 9.34762109375000e+03 5.52093172073364e+00 1550 
7.17629492187500e+03 7.28599804687500e+03 5.51633071899414e+00 1552 
8.03895068359375e+03 6.85676660156250e+03 4.94588470458984e+00 1554 
7.90209619140625e+03 6.38909326171875e+03 5.22292613983154e+00 1555 
8.79258496093750e+03 1.25043876953125e+04 6.35631084442139e+00 1559 
8.67941015625000e+03 1.24725410156250e+04 5.76726245880127e+00 1560 
8.46624121093750e+03 1.17378994140625e+04 6.26720094680786e+00 1561 
7.09389453125000e+03 1.12989160156250e+04 6.65334272384644e+00 1563 
6.96181494140625e+03 1.05415771484375e+04 7.00403070449829e+00 1564 
8.20500488281250e+03 9.28762207031250e+03 6.65631341934204e+00 1565 
8.26034375000000e+03 9.26329003906250e+03 5.49860906600952e+00 1566 
6.22484765625000e+03 9.07482031250000e+03 6.48323583602905e+00 1568 
6.95473779296875e+03 8.89053222656250e+03 5.73823261260986e+00 1569 
7.71837158203125e+03 7.41007080078125e+03 6.52018785476685e+00 1570 
7.74518212890625e+03 4.84132763671875e+03 6.04608535766602e+00 1571 
6.42924023437500e+03 4.92710693359375e+03 5.90896177291870e+00 1572 
7.76965429687500e+03 4.72225878906250e+03 6.68869447708130e+00 1573 
8.09020996093750e+03 1.21738261718750e+04 4.17138051986694e+00 1591 
8.61183593750000e+03 1.13069501953125e+04 5.25403738021851e+00 1592 
7.32851123046875e+03 1.09852324218750e+04 4.38281440734863e+00 1593 
6.68166552734375e+03 9.07247460937500e+03 5.05965614318848e+00 1595 
5.21192675781250e+03 9.17998730468750e+03 3.95928454399109e+00 1596 
3.96841943359375e+03 7.66836132812500e+03 3.83219027519226e+00 1597 
6.47067138671875e+03 6.72469482421875e+03 5.08139705657959e+00 1601 
6.47753076171875e+03 6.39419335937500e+03 4.76636171340942e+00 1603 
7.74073095703125e+03 4.86203271484375e+03 3.71674442291260e+00 1609 
6.42858544921875e+03 4.90469775390625e+03 5.10585927963257e+00 1610 
6.45850048828125e+03 6.53218115234375e+03 5.44556570053101e+00 1622 
6.40258300781250e+03 4.92321679687500e+03 6.38634777069092e+00 1628 
7.63356298828125e+03 4.72116845703125e+03 5.73908185958862e+00 1629 
6.02669531250000e+03 1.19363085937500e+04 8.67570877075195e+00 1632 
6.06365087890625e+03 7.48746386718750e+03 7.16321182250977e+00 1633 
2.34204052734375e+03 1.01557890625000e+04 1.33751125335693e+01 1634 
7.38644042968750e+03 8.24549121093750e+03 1.32036314010620e+01 1635 
6.21488525390625e+03 7.65583984375000e+03 1.72736511230469e+01 1636 
5.86965917968750e+03 6.54234912109375e+03 9.88128280639648e+00 1637 
7.68257324218750e+02 5.77018115234375e+03 1.33844776153564e+01 1638 
2.14173925781250e+03 1.08845205078125e+04 1.44561138153076e+01 1639 
9.31306823730469e+02 9.46161621093750e+03 1.63371601104736e+01 1640 
1.43781372070312e+03 7.73491601562500e+03 1.52802419662476e+01 1641 
1.81629321289062e+03 7.27921777343750e+03 1.54342851638794e+01 1642 
4.51023437500000e+03 1.15112626953125e+04 2.27620239257812e+01 1643 
4.97828125000000e+03 1.04125390625000e+04 4.95251274108887e+01 1644 
5.46059472656250e+03 9.16883203125000e+03 5.67108106613159e+00 1645 
7.07873437500000e+03 8.48662402343750e+03 4.69266510009766e+00 1646 
7.09033349609375e+03 7.71232910156250e+03 4.99132823944092e+00 1647 
6.91657763671875e+03 7.72593798828125e+03 6.19830846786499e+00 1648 
7.88155175781250e+03 1.06501562500000e+04 5.38663196563721e+00 1649 
9.30341369628906e+02 7.32067285156250e+03 4.23717069625854e+00 1650 
8.03096582031250e+03 8.82576367187500e+03 5.68431425094604e+00 1651 
1.46349023437500e+03 9.83213867187500e+03 3.96458172798157e+00 1652 
7.15540429687500e+03 7.76248828125000e+03 3.78300023078918e+00 1653 
2.08890991210938e+03 1.13518808593750e+04 5.26267814636230e+00 1654 
4.54565576171875e+03 1.06376718750000e+04 1.03938875198364e+01 1655 
4.69268066406250e+03 8.76548144531250e+03 1.01472015380859e+01 1656 
9.31195617675781e+02 8.85332226562500e+03 7.31750440597534e+00 1657 
5.06362304687500e+03 1.00104755859375e+04 1.32198047637939e+01 1658 
4.54376904296875e+03 1.26122226562500e+04 8.41586303710938e+00 1659 
8.55094299316406e+02 9.13305761718750e+03 7.71031999588013e+00 1660 
7.63415283203125e+03 1.02738955078125e+04 1.04536418914795e+01 1661 
5.13047998046875e+03 8.88294433593750e+03 1.42113142013550e+01 1662 
7.91022216796875e+03 8.38092089843750e+03 2.77250976562500e+01 1663 
7.94886621093750e+03 7.72803710937500e+03 1.65061817169189e+01 1664 
6.42796044921875e+03 1.10219794921875e+04 2.79420604705811e+01 1665 
2.30125732421875e+03 1.20375234375000e+04 4.84925880432129e+01 1666 
7.45940478515625e+03 8.86831835937500e+03 4.66515541076660e+00 1667 
3.56277954101562e+03 7.37509423828125e+03 5.78198146820068e+00 1668 
6.49224951171875e+03 4.89925830078125e+03 4.19299697875977e+00 1669 
8.61300976562500e+03 1.13343906250000e+04 6.27633714675903e+00 1670 
8.63551464843750e+03 1.13312236328125e+04 4.79701852798462e+00 1671 
1.14600805664062e+03 1.13404492187500e+04 4.62912464141846e+00 1672 
2.56916107177734e+02 1.11757109375000e+04 4.91875410079956e+00 1673 
8.34748730468750e+03 9.45784863281250e+03 3.75588154792786e+00 1674 
2.25198193359375e+03 9.31990820312500e+03 4.34719467163086e+00 1675 
1.60801977539062e+03 9.32208398437500e+03 5.25050449371338e+00 1676 
6.61927197265625e+03 6.51584521484375e+03 5.44026947021484e+00 1677 
1.54695117187500e+03 6.56044873046875e+03 4.41373968124390e+00 1678 
7.77251171875000e+03 4.83833886718750e+03 3.75460267066956e+00 1679 
6.14283789062500e+03 4.61123291015625e+03 4.73084688186646e+00 1680 
8.73727636718750e+03 1.24843457031250e+04 6.68944883346558e+00 1681 
5.98571777343750e+03 1.24456894531250e+04 6.60800743103027e+00 1682 
6.56230419921875e+03 9.85108984375000e+03 6.09052515029907e+00 1683 
1.64666833496094e+03 8.35331640625000e+03 6.41208028793335e+00 1684 
7.74823535156250e+03 1.24056992187500e+04 4.32803773880005e+00 1685 
4.54527648925781e+02 1.05004902343750e+04 5.02422809600830e+00 1686 
7.43830175781250e+03 9.05059570312500e+03 5.14730072021484e+00 1687 
8.78610656738281e+02 7.54966601562500e+03 5.23857688903809e+00 1688 
6.79346984863281e+02 7.33451806640625e+03 4.75606203079224e+00 1689 
8.63927636718750e+03 1.11549550781250e+04 5.91918230056763e+00 1690 
1.73606567382812e+03 1.00437050781250e+04 6.51857042312622e+00 1691 
1.33992324829102e+02 6.22499267578125e+03 5.79444932937622e+00 1692 
2.47400878906250e+03 1.12201708984375e+04 5.07442092895508e+00 1693 
1.75771630859375e+03 1.06863720703125e+04 5.01514816284180e+00 1694 
1.14356091308594e+03 8.16615917968750e+03 4.91818046569824e+00 1695 
4.32279980468750e+03 6.27020019531250e+03 4.95412969589233e+00 1696 
1.97624475097656e+03 5.15471191406250e+03 5.40051937103271e+00 1697 
8.61315136718750e+03 1.12485957031250e+04 6.41491842269897e+00 1698 
4.73942285156250e+03 8.59237109375000e+03 6.73584794998169e+00 1699 
7.39742285156250e+03 1.28218623046875e+04 3.50812387466431e+00 1700 
6.76789648437500e+03 1.07654042968750e+04 4.45647430419922e+00 1701 
8.45984765625000e+03 8.89668457031250e+03 4.35751199722290e+00 1702 
8.48428808593750e+03 8.58728027343750e+03 5.54063320159912e+00 1703 
6.99474707031250e+03 1.19487412109375e+04 5.43112325668335e+00 1704 
6.60795605468750e+03 1.18688730468750e+04 4.04486846923828e+00 1705 
8.17705957031250e+03 9.90621191406250e+03 4.71019840240479e+00 1706 
3.11550854492188e+03 1.05372998046875e+04 3.86471295356750e+00 1707 
8.75104785156250e+03 8.59021777343750e+03 4.30445718765259e+00 1708 
8.46328906250000e+03 8.61597167968750e+03 5.90631389617920e+00 1709 
7.51625390625000e+03 6.04468408203125e+03 3.79892086982727e+00 1710 
2.29666528320312e+03 9.32444335937500e+03 1.00944137573242e+01 1711 
8.73107226562500e+03 5.94461669921875e+03 8.27491760253906e+00 1712 
8.61333105468750e+03 6.84346875000000e+03 1.36229753494263e+01 1713 
3.87668115234375e+03 1.22096191406250e+04 1.73918628692627e+01 1714 
8.35428710937500e+03 8.39218945312500e+03 4.67875862121582e+01 1715 
2.81252709960938e+03 7.99185449218750e+03 1.39336366653442e+01 1716 
4.63302587890625e+03 1.11125869140625e+04 5.32758712768555e+00 1717 
4.40087695312500e+03 9.01859277343750e+03 3.62570047378540e+00 1718 
8.58520117187500e+03 7.92061816406250e+03 4.67546415328979e+00 1719 
6.06145703125000e+03 7.51080029296875e+03 4.25361537933350e+00 1720 
8.46243652343750e+03 4.73082080078125e+03 5.69161987304688e+00 1721 
3.40587695312500e+03 1.28573339843750e+04 6.38536500930786e+00 1722 
8.64515136718750e+03 9.91972070312500e+03 5.97087526321411e+00 1723 
8.60840332031250e+03 7.92099023437500e+03 6.27114629745483e+00 1724 
8.46567480468750e+03 6.13300683593750e+03 6.86200904846191e+00 1725 
8.28606054687500e+03 4.72894091796875e+03 6.59721612930298e+00 1726 
6.61783251953125e+03 1.18648798828125e+04 4.07455539703369e+00 1727 
5.87128515625000e+03 1.13619453125000e+04 5.43787336349487e+00 1728 
5.93363916015625e+03 1.10735029296875e+04 5.46381044387817e+00 1729 
4.44868457031250e+03 9.47153710937500e+03 4.50885248184204e+00 1730 
7.00894433593750e+03 8.86480761718750e+03 4.35376739501953e+00 1731 
2.28045776367188e+03 7.76804785156250e+03 4.75003814697266e+00 1732 
7.99265087890625e+03 1.02086289062500e+04 6.08964824676514e+00 1733 
5.91876025390625e+03 9.94820117187500e+03 6.14107561111450e+00 1734 
8.52208886718750e+03 9.17148535156250e+03 5.92122507095337e+00 1735 
8.77331347656250e+03 7.27574365234375e+03 6.28066635131836e+00 1736 
8.73912988281250e+03 7.22934423828125e+03 6.26995038986206e+00 1737 
8.23027636718750e+03 4.72810205078125e+03 6.45900630950928e+00 1738 
7.00758789062500e+03 1.19520253906250e+04 4.17103290557861e+00 1739 
8.79833984375000e+03 1.13145146484375e+04 5.38537216186523e+00 1740 
8.29363183593750e+03 9.41269238281250e+03 6.26435708999634e+00 1741 
5.63951904296875e+03 9.58237890625000e+03 4.14365673065186e+00 1742 
7.17150195312500e+03 4.86525488281250e+03 5.64086341857910e+00 1743 
7.99229541015625e+03 4.73256835937500e+03 6.46729993820190e+00 1744 
5.65623242187500e+03 1.27033017578125e+04 5.08594512939453e+00 1745 
5.97952148437500e+03 1.24682724609375e+04 4.31330919265747e+00 1746 
6.26221191406250e+03 9.78944921875000e+03 4.47910308837891e+00 1747 
7.09049853515625e+03 8.47922265625000e+03 5.03004598617554e+00 1748 
8.24480761718750e+03 6.85380322265625e+03 4.83826065063477e+00 1749 
6.07130273437500e+03 6.99053906250000e+03 4.15919494628906e+00 1750 
8.46562402343750e+03 4.85987646484375e+03 5.68383121490479e+00 1751 
8.51713964843750e+03 1.06163173828125e+04 6.76312923431396e+00 1752 
7.02795166015625e+03 9.37465722656250e+03 8.97848987579346e+00 1753 
2.97789648437500e+03 9.13950683593750e+03 8.22075653076172e+00 1754 
3.32067651367188e+03 6.68307519531250e+03 1.14050111770630e+01 1755 
8.31036621093750e+03 5.86618847656250e+03 1.13139505386353e+01 1756 
8.09507373046875e+03 9.76748925781250e+03 1.00198106765747e+01 1757 
7.02759179687500e+03 9.57547460937500e+03 8.98334312438965e+00 1758 
8.34982128906250e+03 5.86747802734375e+03 1.11589622497559e+01 1759 
4.57490527343750e+03 1.22186074218750e+04 8.97919940948486e+00 1760 
7.17961181640625e+03 7.24137011718750e+03 7.42359304428101e+00 1761 
8.28916503906250e+03 4.86410156250000e+03 8.90876674652100e+00 1762 
