ply
format ascii 1.0
element vertex 702
property double x
property double y
property double size
property short id
end_header
1.19127807617188e+03 6.12335693359375e+02 4.70890378952026e+00 305 
2.33438061523438e+03 7.83804833984375e+03 5.95938396453857e+00 306 
7.26215625000000e+03 7.99130859375000e+03 6.20123958587646e+00 307 
2.79269555664062e+03 6.48977832031250e+03 5.70373058319092e+00 308 
1.36380090332031e+03 6.37057910156250e+03 6.18464422225952e+00 309 
8.24138574218750e+03 6.18862890625000e+03 5.53398227691650e+00 310 
2.02314526367188e+03 4.23657470703125e+03 7.11499214172363e+00 311 
2.99277514648438e+03 4.24536181640625e+03 5.66365718841553e+00 312 
2.40996118164062e+03 4.17038818359375e+03 6.24572372436523e+00 313 
5.86121289062500e+03 3.89294995117188e+03 6.19083547592163e+00 314 
5.06777587890625e+03 3.14333081054688e+03 5.75645160675049e+00 315 
1.22846252441406e+03 2.19038623046875e+03 6.39522361755371e+00 316 
1.22884448242188e+03 2.11254565429688e+03 6.54513072967529e+00 317 
6.72015197753906e+02 1.61320288085938e+03 6.92261886596680e+00 318 
1.11769262695312e+03 7.70207080078125e+03 5.44519090652466e+00 319 
8.30352734375000e+03 7.61837158203125e+03 4.14867782592773e+00 320 
7.15284130859375e+03 7.43643457031250e+03 4.98156738281250e+00 321 
2.35107617187500e+03 7.01066064453125e+03 4.20692348480225e+00 322 
9.45615051269531e+02 6.83177392578125e+03 5.24137020111084e+00 323 
5.14522070312500e+03 7.18752636718750e+03 5.50307273864746e+00 324 
2.83013769531250e+03 6.93378466796875e+03 5.04577112197876e+00 325 
3.78567333984375e+03 6.57794775390625e+03 3.93524122238159e+00 326 
1.38656970214844e+03 6.37324755859375e+03 5.30216217041016e+00 327 
2.33568164062500e+03 5.67350244140625e+03 4.55161523818970e+00 328 
9.24643066406250e+02 4.86809326171875e+03 4.39581108093262e+00 329 
3.06959838867188e+03 4.72431689453125e+03 5.29117584228516e+00 330 
2.45148376464844e+02 3.52195434570312e+03 4.62384653091431e+00 331 
1.82116406250000e+03 3.12569921875000e+03 5.77727079391479e+00 332 
4.34108056640625e+03 2.83828271484375e+03 4.15436697006226e+00 333 
2.83734680175781e+02 2.05565844726562e+03 3.79751586914062e+00 334 
6.04975732421875e+03 2.41405395507812e+03 5.37811136245728e+00 335 
5.42460791015625e+03 2.21214868164062e+03 3.90311479568481e+00 336 
4.03501904296875e+03 1.96656091308594e+03 5.99187231063843e+00 337 
1.56883874511719e+03 1.28442150878906e+03 3.64275646209717e+00 338 
1.22085827636719e+03 1.03027697753906e+03 3.70040440559387e+00 339 
1.22666418457031e+03 9.98026672363281e+02 4.85076904296875e+00 340 
2.97533508300781e+02 9.46606628417969e+02 3.96243095397949e+00 341 
1.27720214843750e+03 4.06919580078125e+03 6.80675363540649e+00 342 
5.08189111328125e+03 3.23041162109375e+03 6.16172647476196e+00 343 
1.63537072753906e+03 2.94055224609375e+03 6.17672729492188e+00 344 
1.51261706542969e+03 1.24236853027344e+03 5.60481739044189e+00 345 
4.84966455078125e+03 8.12651464843750e+03 4.49704074859619e+00 346 
4.16738378906250e+03 7.96803808593750e+03 4.28975534439087e+00 347 
2.31700341796875e+03 7.69546777343750e+03 5.44506216049194e+00 348 
1.88733300781250e+03 7.62686376953125e+03 3.95024967193604e+00 349 
8.71497726440430e+01 7.21089746093750e+03 4.87692642211914e+00 350 
7.49711914062500e+03 7.59311572265625e+03 4.85321664810181e+00 351 
1.68102676391602e+02 6.54353515625000e+03 4.63083600997925e+00 352 
1.04389758300781e+03 6.48995703125000e+03 4.69706296920776e+00 353 
2.19622778320312e+03 6.57389550781250e+03 3.83146405220032e+00 354 
7.17987402343750e+03 6.80689941406250e+03 3.65932917594910e+00 355 
2.95882031250000e+03 6.01161621093750e+03 5.51610994338989e+00 356 
1.51409924316406e+03 5.39711572265625e+03 3.93487071990967e+00 357 
7.64081054687500e+02 5.14520019531250e+03 4.12930870056152e+00 358 
3.19846435546875e+03 4.67107617187500e+03 5.18549060821533e+00 359 
1.99936657714844e+03 4.24322314453125e+03 5.45612430572510e+00 360 
1.99716589355469e+03 4.21092041015625e+03 4.84644460678101e+00 361 
6.54539428710938e+02 3.65062353515625e+03 4.77847003936768e+00 362 
4.67039550781250e+03 3.70134082031250e+03 5.00458383560181e+00 363 
5.96429248046875e+03 3.64793408203125e+03 4.99555444717407e+00 364 
4.38067919921875e+03 2.83837841796875e+03 5.33420753479004e+00 365 
2.47993945312500e+03 2.62735668945312e+03 5.15187072753906e+00 366 
1.58282714843750e+03 1.47186206054688e+03 3.64352726936340e+00 367 
1.57458642578125e+03 1.43671594238281e+03 3.78201365470886e+00 368 
8.31222949218750e+03 1.36280773925781e+03 5.02165794372559e+00 369 
3.60015820312500e+03 4.91264221191406e+02 5.54149293899536e+00 370 
2.49952709960938e+03 9.13199691772461e+01 4.17347002029419e+00 371 
1.10133044433594e+03 7.92720703125000e+03 6.93297767639160e+00 372 
2.31044653320312e+03 7.82855029296875e+03 5.74409103393555e+00 373 
1.14012988281250e+03 7.70575488281250e+03 6.12944889068604e+00 374 
2.42406469726562e+03 7.72704345703125e+03 6.35182142257690e+00 375 
8.10836639404297e+01 7.23458886718750e+03 6.15190124511719e+00 376 
1.14194226074219e+03 7.18936865234375e+03 5.69700908660889e+00 377 
2.09143066406250e+03 6.14614550781250e+03 5.77324914932251e+00 378 
1.91261749267578e+02 5.54650878906250e+03 5.84055709838867e+00 379 
7.47678604125977e+01 4.61707128906250e+03 6.73869657516479e+00 380 
1.27896923828125e+03 4.02090673828125e+03 6.67462110519409e+00 381 
1.95945324707031e+03 3.88847802734375e+03 6.94480228424072e+00 382 
1.65709960937500e+03 2.69468139648438e+03 7.21820497512817e+00 383 
1.22075085449219e+03 2.08889477539062e+03 6.44512319564819e+00 384 
4.05931976318359e+02 1.31680957031250e+03 6.12713956832886e+00 385 
5.40728393554688e+02 1.31727673339844e+03 5.80370807647705e+00 386 
2.18147680664062e+03 8.61603759765625e+02 6.12935590744019e+00 387 
4.03463806152344e+02 9.83393096923828e+01 6.65728139877319e+00 388 
1.99939746093750e+03 6.30507373046875e+03 9.63315677642822e+00 389 
2.19569702148438e+03 6.18655566406250e+03 8.45187282562256e+00 390 
6.56200378417969e+02 5.71688427734375e+03 8.52226066589355e+00 391 
4.62125927734375e+03 3.98192407226562e+03 9.40983867645264e+00 392 
6.19637695312500e+02 1.19674829101562e+03 8.10393905639648e+00 393 
4.72019622802734e+02 1.14672631835938e+03 9.44278621673584e+00 394 
8.62645800781250e+03 8.55385986328125e+02 5.20303773880005e+00 395 
6.66291699218750e+03 2.95516937255859e+02 4.11328840255737e+00 396 
1.13685473632812e+03 7.73271875000000e+03 6.20034122467041e+00 397 
2.66536401367188e+03 6.90890332031250e+03 5.99183464050293e+00 398 
5.55724511718750e+03 6.92158105468750e+03 6.13976955413818e+00 399 
1.34867431640625e+03 6.50972656250000e+03 6.25004863739014e+00 400 
2.36694311523438e+03 6.23468359375000e+03 5.99797010421753e+00 401 
2.12662451171875e+03 5.26806445312500e+03 5.81300878524780e+00 402 
3.29285620117188e+03 4.82122998046875e+03 5.87495899200439e+00 403 
6.40621044921875e+03 4.87261035156250e+03 6.54189825057983e+00 404 
7.56399023437500e+03 4.39262500000000e+03 7.13729143142700e+00 405 
1.44126452636719e+03 3.65334741210938e+03 5.98824834823608e+00 406 
1.58505505371094e+03 1.30588464355469e+03 6.79828405380249e+00 407 
4.73705859375000e+03 8.07932324218750e+03 4.47536516189575e+00 408 
5.41858789062500e+03 8.02714013671875e+03 4.37079000473022e+00 409 
1.63719360351562e+03 7.57220458984375e+03 5.47188043594360e+00 410 
1.47487536621094e+03 7.46034472656250e+03 4.74334144592285e+00 411 
8.18963745117188e+02 7.33333007812500e+03 6.30388116836548e+00 412 
2.93927294921875e+03 7.00004199218750e+03 5.32319879531860e+00 413 
1.04045983886719e+03 6.51867919921875e+03 4.52517223358154e+00 414 
2.81586938476562e+03 6.65148828125000e+03 5.31372070312500e+00 415 
1.38048120117188e+03 6.42801220703125e+03 5.24685335159302e+00 416 
1.35872436523438e+03 6.42691210937500e+03 5.62768793106079e+00 417 
2.07036303710938e+03 6.13065527343750e+03 4.66727352142334e+00 418 
3.64219042968750e+03 6.22344775390625e+03 3.88935899734497e+00 419 
1.93091979980469e+02 5.60966064453125e+03 5.29805803298950e+00 420 
5.59623388671875e+03 5.54726464843750e+03 5.56064224243164e+00 421 
6.41053619384766e+01 4.74638769531250e+03 5.48504018783569e+00 422 
3.30286035156250e+03 4.67385009765625e+03 4.06128025054932e+00 423 
2.17889306640625e+03 3.79518139648438e+03 5.07725191116333e+00 424 
2.79055847167969e+02 3.27723535156250e+03 4.08183717727661e+00 425 
1.16257751464844e+03 2.40078002929688e+03 5.02552366256714e+00 426 
4.72693212890625e+03 2.52587426757812e+03 4.08418130874634e+00 427 
8.17857666015625e+03 2.00599792480469e+03 4.82343101501465e+00 428 
2.77175854492188e+03 1.37691894531250e+03 5.40417528152466e+00 429 
2.59413842773438e+03 1.28071093750000e+03 4.90596961975098e+00 430 
2.58083300781250e+03 8.12934448242188e+02 4.63225364685059e+00 431 
2.57824877929688e+03 7.95453430175781e+02 4.26523351669312e+00 432 
1.81011120605469e+03 5.66778503417969e+02 5.29039907455444e+00 433 
3.34677392578125e+03 3.78965698242188e+02 4.61824846267700e+00 434 
1.34994067382812e+03 3.46665893554688e+03 5.27933597564697e+00 435 
1.10573352050781e+03 7.89429882812500e+03 6.94619321823120e+00 436 
5.00047027587891e+02 7.84073925781250e+03 7.67639446258545e+00 437 
3.04008728027344e+02 7.74223339843750e+03 6.20685195922852e+00 438 
1.66899584960938e+03 7.56306396484375e+03 6.04694557189941e+00 439 
1.17226416015625e+03 7.44080517578125e+03 6.34356737136841e+00 440 
7.49868896484375e+03 7.75633154296875e+03 6.80102920532227e+00 441 
1.47684341430664e+02 6.68980371093750e+03 6.18404912948608e+00 442 
1.53746200561523e+02 6.63997314453125e+03 6.52806663513184e+00 443 
2.64693969726562e+03 6.67526318359375e+03 6.91585159301758e+00 444 
1.01635742187500e+03 6.49272802734375e+03 6.52755880355835e+00 445 
1.06274560546875e+03 6.12739306640625e+03 6.76481771469116e+00 446 
1.14320605468750e+03 5.94222656250000e+03 6.71930122375488e+00 447 
4.47363281250000e+03 6.02801611328125e+03 6.53428840637207e+00 448 
2.92853118896484e+02 5.64553222656250e+03 6.07401561737061e+00 449 
2.89161407470703e+02 5.32295361328125e+03 6.46045494079590e+00 450 
2.92892480468750e+03 5.04283740234375e+03 7.10337829589844e+00 451 
1.13082435607910e+02 4.77062109375000e+03 6.55989646911621e+00 452 
7.35164306640625e+02 6.63241796875000e+03 9.67725849151611e+00 457 
4.67866162109375e+03 7.40683740234375e+03 3.92971343994141e+01 462 
1.78787341308594e+03 1.02753015136719e+03 3.94172120094299e+00 464 
4.12327832031250e+03 6.23401527404785e+01 3.77111244201660e+00 465 
2.65736499023438e+03 1.67527563476562e+03 6.20887994766235e+00 470 
1.20374536132812e+03 1.64389086914062e+03 1.39901752471924e+01 484 
1.51706042480469e+03 7.89337402343750e+03 9.26795578002930e+00 485 
1.71027941894531e+03 7.60455273437500e+03 4.91935825347900e+00 493 
2.31593383789062e+03 7.08494042968750e+03 4.03760051727295e+00 494 
4.95296289062500e+03 5.34368066406250e+03 5.51794242858887e+00 497 
5.57909570312500e+03 4.94834423828125e+03 5.20381212234497e+00 498 
2.56912329101562e+03 3.82443530273438e+03 5.67686748504639e+00 499 
1.89102990722656e+03 2.67033691406250e+03 5.32207012176514e+00 502 
5.87395800781250e+03 7.27513232421875e+03 6.18026733398438e+00 506 
2.55701635742188e+03 3.37103198242188e+03 5.73612022399902e+00 507 
2.85950976562500e+03 5.39388476562500e+03 5.00986003875732e+00 515 
5.08227783203125e+03 3.55466528320312e+03 3.88501262664795e+00 519 
5.95569726562500e+03 3.66882324218750e+03 5.72195529937744e+00 521 
5.58073193359375e+03 7.31308300781250e+03 4.56749820709229e+00 524 
3.32485083007812e+03 4.83709472656250e+03 4.70773363113403e+00 526 
2.21567724609375e+03 3.85496826171875e+03 4.97812128067017e+00 527 
2.48849365234375e+03 5.72479003906250e+03 6.60603094100952e+00 532 
4.47039648437500e+03 4.54658984375000e+03 7.40847444534302e+00 535 
1.04989831542969e+03 1.39063781738281e+03 9.81271076202393e+00 536 
6.03240722656250e+03 6.28202697753906e+02 8.81251239776611e+00 537 
4.02686962890625e+03 6.99414062500000e+03 1.31424970626831e+01 538 
1.46602624511719e+03 7.48248046875000e+03 6.09611749649048e+00 541 
2.06273217773438e+03 6.98570410156250e+03 6.39056587219238e+00 542 
2.82955273437500e+03 6.38327294921875e+03 5.66939592361450e+00 543 
5.16155517578125e+03 5.57458154296875e+03 6.67645406723022e+00 545 
5.11637402343750e+03 4.95150634765625e+03 6.37460279464722e+00 546 
5.34245458984375e+03 6.27937353515625e+03 5.14517116546631e+00 549 
4.94161328125000e+03 5.20357812500000e+03 5.45226049423218e+00 551 
2.20571792602539e+02 7.73309423828125e+03 7.03890609741211e+00 555 
2.38304394531250e+03 7.86129833984375e+03 6.06508350372314e+00 556 
1.90107946777344e+03 7.66049414062500e+03 6.92444944381714e+00 557 
4.58843164062500e+03 6.63840820312500e+03 6.52439832687378e+00 558 
2.06249316406250e+03 6.15184179687500e+03 5.91469335556030e+00 559 
6.19674316406250e+02 8.40581933593750e+03 5.60401916503906e+00 569 
2.84902124023438e+03 6.95761621093750e+03 3.96854591369629e+00 570 
3.94724194335938e+03 7.76275878906250e+03 4.07574558258057e+00 571 
3.07415332031250e+03 8.01884619140625e+03 4.13437795639038e+00 572 
4.38555224609375e+03 1.00977119140625e+04 5.01966142654419e+00 573 
3.70253735351562e+03 1.03334453125000e+04 4.79841375350952e+00 574 
6.15664990234375e+03 1.05664736328125e+04 4.01037359237671e+00 575 
2.44673974609375e+03 1.08177304687500e+04 4.16436195373535e+00 576 
5.70348437500000e+03 1.12243144531250e+04 4.56030035018921e+00 577 
7.06468261718750e+03 1.19178027343750e+04 3.83867573738098e+00 578 
4.15451562500000e+03 2.98247021484375e+03 5.04393482208252e+00 579 
8.19293652343750e+03 3.14586425781250e+03 5.80280971527100e+00 580 
8.51692089843750e+03 5.17635791015625e+03 6.69205760955811e+00 581 
3.74093383789062e+03 5.55071240234375e+03 5.53704118728638e+00 582 
5.85773535156250e+03 8.61979199218750e+03 5.46400547027588e+00 583 
4.04582958984375e+03 4.01099891662598e+01 4.34016323089600e+00 584 
8.68371679687500e+03 1.03130944824219e+03 3.77628946304321e+00 585 
5.92444042968750e+03 1.01447698974609e+03 5.52711629867554e+00 586 
8.62327929687500e+03 2.92223046875000e+03 3.84166765213013e+00 587 
3.29679785156250e+03 2.77513061523438e+03 3.75192523002625e+00 588 
7.49309326171875e+03 5.57606152343750e+03 4.25512599945068e+00 589 
4.55736816406250e+03 7.67854687500000e+03 4.12249422073364e+00 590 
2.98788574218750e+03 8.34592187500000e+03 4.70845413208008e+00 591 
4.19062060546875e+03 1.00771406250000e+04 4.05187034606934e+00 592 
7.60039892578125e+03 1.03297910156250e+04 4.15450239181519e+00 593 
3.77454394531250e+03 1.08045009765625e+04 4.69940328598022e+00 594 
4.62654931640625e+03 1.16704042968750e+04 5.09287500381470e+00 595 
6.26814550781250e+03 1.28365507812500e+04 3.72378492355347e+00 596 
4.03932177734375e+03 3.02570556640625e+02 5.97688961029053e+00 597 
7.14248925781250e+03 5.12484667968750e+03 1.06062307357788e+01 598 
6.90634375000000e+03 5.32411474609375e+03 1.43670463562012e+01 599 
6.23528808593750e+03 7.33376904296875e+03 1.25652236938477e+01 600 
6.71023974609375e+03 1.95262915039062e+03 6.24106073379517e+00 601 
4.14336572265625e+03 1.11567421875000e+04 1.24149923324585e+01 602 
7.75536279296875e+03 3.23167016601562e+03 1.14060907363892e+01 603 
8.50604003906250e+03 5.40927246093750e+03 8.68405818939209e+00 604 
4.68034814453125e+03 7.01125146484375e+03 6.94946241378784e+00 605 
6.13572900390625e+03 1.05928916015625e+04 8.43832206726074e+00 606 
7.16659521484375e+03 1.14532919921875e+04 9.09349346160889e+00 607 
7.53469140625000e+03 6.35624169921875e+03 1.19559154510498e+01 608 
7.57223828125000e+03 1.85908581542969e+03 6.13148832321167e+00 609 
6.59032714843750e+03 1.96072607421875e+03 7.94024229049683e+00 610 
8.13769921875000e+03 3.28844433593750e+03 7.74356031417847e+00 611 
3.63339135742188e+03 5.50119873046875e+03 6.64490079879761e+00 612 
3.55908544921875e+03 8.20766699218750e+03 1.33018417358398e+01 613 
5.53059765625000e+03 8.98553613281250e+03 7.30254936218262e+00 614 
6.30590185546875e+03 3.35066210937500e+03 1.26078910827637e+01 615 
7.33014941406250e+03 4.95167724609375e+03 1.21309843063354e+01 616 
7.81003710937500e+03 5.40153125000000e+03 1.19162473678589e+01 617 
7.60391455078125e+03 5.84281201171875e+03 1.61192417144775e+01 618 
6.04744189453125e+03 7.76499511718750e+03 1.57085914611816e+01 619 
3.53638476562500e+03 1.05299257812500e+04 1.93797359466553e+01 620 
6.64623632812500e+03 6.98075585937500e+03 1.52392978668213e+01 621 
4.03168041992188e+03 1.10832187500000e+04 1.73002796173096e+01 622 
8.32080468750000e+03 3.90204980468750e+03 1.54591121673584e+01 623 
6.57471142578125e+03 7.15324169921875e+03 1.60293254852295e+01 624 
5.90393310546875e+03 8.11004101562500e+03 1.46614131927490e+01 625 
6.94623583984375e+03 1.16185634765625e+04 2.56422405242920e+01 626 
7.22004052734375e+03 3.52381274414062e+03 2.28885440826416e+01 627 
6.33554345703125e+03 7.37823193359375e+03 1.41463041305542e+01 628 
3.59818969726562e+03 7.35875488281250e+03 1.95598449707031e+01 629 
6.37958886718750e+03 7.90580810546875e+03 1.46543245315552e+01 630 
7.51884472656250e+03 5.25202783203125e+03 3.29231109619141e+01 631 
4.60496826171875e+03 7.57080371093750e+03 3.60435295104980e+01 632 
7.53356689453125e+03 5.53747509765625e+03 3.60603523254395e+01 633 
3.83609399414062e+03 1.08773632812500e+04 3.79470901489258e+01 634 
4.41366015625000e+03 1.11914384765625e+04 8.80799407958984e+01 635 
5.37327832031250e+03 1.77935290527344e+03 4.17696237564087e+00 636 
3.83376806640625e+03 3.52189135742188e+03 4.19180822372437e+00 637 
5.86654199218750e+03 4.36169189453125e+03 3.98698902130127e+00 638 
8.46228320312500e+03 5.10157275390625e+03 3.88630723953247e+00 639 
4.19927490234375e+03 6.81640771484375e+03 4.31574058532715e+00 640 
5.14001025390625e+03 7.19961181640625e+03 3.79366898536682e+00 641 
6.74006005859375e+03 7.92637939453125e+03 3.71009087562561e+00 642 
4.82366943359375e+03 8.71662304687500e+03 3.62670731544495e+00 643 
3.79408154296875e+03 8.90908886718750e+03 4.76938247680664e+00 644 
8.32490234375000e+03 1.09416376953125e+04 4.03400611877441e+00 645 
4.22564257812500e+03 1.10111464843750e+04 5.32452344894409e+00 646 
5.72457470703125e+03 1.12339570312500e+04 4.80257415771484e+00 647 
6.98291357421875e+03 1.14338945312500e+04 4.04769754409790e+00 648 
4.34903808593750e+03 1.17574980468750e+04 4.89779567718506e+00 649 
6.31569091796875e+03 1.18792744140625e+04 4.14968109130859e+00 650 
3.18931323242188e+03 1.24102958984375e+04 4.15473890304565e+00 651 
6.99143066406250e+03 1.27359550781250e+04 5.75526142120361e+00 652 
2.98658813476562e+03 8.53571191406250e+03 5.95731019973755e+00 653 
3.58501635742188e+03 8.41446960449219e+02 4.17197084426880e+00 654 
7.87343457031250e+03 1.01308233642578e+03 4.11133241653442e+00 655 
8.04773046875000e+03 1.08437292480469e+03 3.94933414459229e+00 656 
7.57066503906250e+03 1.13236291503906e+03 4.53946638107300e+00 657 
4.96311523437500e+03 1.29914257812500e+03 3.78922033309937e+00 658 
5.57370166015625e+03 1.70478747558594e+03 5.44374608993530e+00 659 
4.94959179687500e+03 2.37828320312500e+03 3.94131946563721e+00 660 
7.54894580078125e+03 3.09895410156250e+03 4.15400886535645e+00 661 
8.20685742187500e+03 3.12134033203125e+03 3.64406800270081e+00 662 
4.40331054687500e+03 3.18273437500000e+03 3.66033983230591e+00 663 
5.74731445312500e+03 3.33832275390625e+03 3.95104598999023e+00 664 
6.20602001953125e+03 3.36844262695312e+03 5.32843112945557e+00 665 
5.39688623046875e+03 3.46269775390625e+03 4.60657930374146e+00 666 
3.71455517578125e+03 3.49448559570312e+03 4.10764074325562e+00 667 
4.06158081054688e+03 3.56682983398438e+03 4.09561634063721e+00 668 
5.24233154296875e+03 3.62353637695312e+03 4.08803749084473e+00 669 
3.50208081054688e+03 4.70247412109375e+03 4.05346679687500e+00 670 
3.89575000000000e+03 2.01137402343750e+03 7.05012178421021e+00 671 
7.78957470703125e+03 3.70700439453125e+03 6.07674837112427e+00 672 
8.48425000000000e+03 5.32598193359375e+03 7.51030874252319e+00 673 
6.18485351562500e+03 8.10937011718750e+03 5.12586927413940e+00 674 
8.63682421875000e+03 8.57975769042969e+02 4.00377464294434e+00 675 
5.00391406250000e+03 1.30326354980469e+03 3.61075234413147e+00 676 
2.65020605468750e+03 1.64134875488281e+03 3.84715485572815e+00 677 
3.31869677734375e+03 1.93558190917969e+03 5.26568317413330e+00 678 
2.82201586914062e+03 2.61653027343750e+03 4.58476257324219e+00 679 
8.18483398437500e+03 3.14383276367188e+03 3.93047142028809e+00 680 
7.61438330078125e+03 3.14914404296875e+03 3.72835278511047e+00 681 
7.79681738281250e+03 3.64056982421875e+03 3.96088576316833e+00 682 
3.36967919921875e+03 3.86265014648438e+03 4.35114717483521e+00 683 
5.26383007812500e+03 4.40528369140625e+03 3.82104277610779e+00 684 
5.08179003906250e+03 4.72258251953125e+03 4.22211933135986e+00 685 
7.34510937500000e+03 5.56891259765625e+03 4.10139226913452e+00 686 
7.54654541015625e+03 5.81839306640625e+03 3.67669343948364e+00 687 
6.78549804687500e+03 6.03598095703125e+03 3.87341499328613e+00 688 
7.18396191406250e+03 6.89231347656250e+03 4.00850105285645e+00 689 
4.96592187500000e+03 7.10854150390625e+03 4.33701515197754e+00 690 
5.60134960937500e+03 7.12878173828125e+03 4.02093315124512e+00 691 
7.87758886718750e+03 1.01020126953125e+04 3.85458111763000e+00 692 
6.82806689453125e+03 1.00839257812500e+04 3.82988548278809e+00 693 
7.36537060546875e+03 1.08282294921875e+04 4.45130681991577e+00 694 
6.28510253906250e+03 1.17442558593750e+04 4.23733234405518e+00 695 
6.40096582031250e+03 1.17455898437500e+04 3.86586761474609e+00 696 
5.23046728515625e+03 1.22518564453125e+04 4.00515937805176e+00 697 
4.25501953125000e+03 1.28428837890625e+04 4.04231405258179e+00 698 
8.49518652343750e+03 5.36796582031250e+03 7.47984170913696e+00 699 
3.69520800781250e+03 5.54435546875000e+03 6.28563690185547e+00 700 
5.24664306640625e+03 1.02102988281250e+04 4.97121000289917e+00 701 
5.33557568359375e+03 1.06058779296875e+04 1.22364873886108e+01 702 
7.20340185546875e+03 2.82137280273438e+03 1.46106481552124e+01 703 
8.26432226562500e+03 6.33779248046875e+03 3.81097698211670e+00 704 
5.65418457031250e+03 6.46017822265625e+03 4.25791358947754e+00 705 
8.16210205078125e+03 6.53834179687500e+03 5.06539297103882e+00 706 
7.60596582031250e+03 6.96023828125000e+03 5.09457254409790e+00 707 
5.13389062500000e+03 7.20599414062500e+03 3.79345679283142e+00 708 
5.79064355468750e+03 7.81729833984375e+03 4.80458211898804e+00 709 
7.12476562500000e+03 8.01685253906250e+03 4.88470792770386e+00 710 
8.48618847656250e+03 8.09161083984375e+03 5.05852746963501e+00 711 
8.65668164062500e+03 8.31936425781250e+03 4.41477489471436e+00 712 
3.06850488281250e+03 8.35895996093750e+03 4.13335466384888e+00 713 
4.88157324218750e+03 8.52440039062500e+03 5.26463365554810e+00 714 
6.30418701171875e+03 8.61362597656250e+03 5.33406305313110e+00 715 
8.50065917968750e+03 8.95824902343750e+03 5.53286218643188e+00 716 
6.50811181640625e+03 8.95900878906250e+03 4.52073860168457e+00 717 
6.43460400390625e+03 9.66154003906250e+03 5.24786615371704e+00 718 
6.45496728515625e+03 9.66367578125000e+03 4.72782516479492e+00 719 
2.49272265625000e+03 9.73466503906250e+03 5.15323305130005e+00 720 
2.84981250000000e+03 1.00659287109375e+04 5.26474475860596e+00 721 
5.00859423828125e+03 1.01316445312500e+04 4.66836023330688e+00 722 
4.90986962890625e+03 1.03250908203125e+04 4.14679622650146e+00 723 
2.40735839843750e+03 1.05625849609375e+04 3.96102976799011e+00 724 
6.84959277343750e+03 1.07504023437500e+04 4.26369524002075e+00 725 
5.70548144531250e+03 1.08842353515625e+04 4.04597282409668e+00 726 
7.88879638671875e+03 1.12612392578125e+04 5.43991231918335e+00 727 
8.54341406250000e+03 1.16549785156250e+04 5.56431388854980e+00 728 
3.69777905273438e+03 1.15250273437500e+04 5.35607671737671e+00 729 
3.19306738281250e+03 1.19217724609375e+04 4.47653627395630e+00 730 
5.22120019531250e+03 1.22467265625000e+04 4.22405767440796e+00 731 
5.46730517578125e+03 1.22534355468750e+04 5.42559909820557e+00 732 
5.53452783203125e+03 1.22524716796875e+04 3.98764181137085e+00 733 
5.86741308593750e+03 1.22646132812500e+04 5.64558029174805e+00 734 
3.45074926757812e+03 1.26461845703125e+04 5.53514671325684e+00 735 
6.27443408203125e+03 1.28300761718750e+04 3.74870085716248e+00 736 
6.26646044921875e+03 1.28466044921875e+04 3.91880130767822e+00 737 
6.15646582031250e+03 1.28771328125000e+04 3.99215221405029e+00 738 
4.25822998046875e+03 1.28328212890625e+04 4.57887268066406e+00 739 
3.41498925781250e+03 1.28193847656250e+04 4.54048347473145e+00 740 
6.90285498046875e+03 1.29506503906250e+04 3.93288850784302e+00 741 
8.55263964843750e+03 8.69935913085938e+02 6.35772991180420e+00 742 
7.45282177734375e+03 1.81876098632812e+03 6.34881162643433e+00 743 
5.55855273437500e+03 2.60746997070312e+03 6.50291442871094e+00 744 
3.65988842773438e+03 3.11206616210938e+03 6.64604425430298e+00 745 
6.79502246093750e+03 3.90846166992188e+03 6.20707130432129e+00 746 
6.76600830078125e+03 3.97123510742188e+03 5.64717531204224e+00 747 
7.61553271484375e+03 4.28463378906250e+03 5.47011852264404e+00 748 
8.57675683593750e+03 4.82616455078125e+03 6.45390033721924e+00 749 
5.54372216796875e+03 5.04477832031250e+03 6.72081089019775e+00 750 
7.56908349609375e+03 5.84329785156250e+03 6.04871273040771e+00 751 
3.81806787109375e+03 7.16276074218750e+03 6.44551944732666e+00 752 
4.48683349609375e+03 8.30354101562500e+03 6.17590999603271e+00 753 
2.72244335937500e+03 8.66386718750000e+03 6.10091829299927e+00 754 
7.45632128906250e+03 9.22214746093750e+03 6.16791915893555e+00 755 
3.87024536132812e+03 9.60706738281250e+03 6.68746519088745e+00 756 
6.80655126953125e+03 1.00587558593750e+04 6.18938112258911e+00 757 
8.06706494140625e+03 1.20511972656250e+04 5.96805381774902e+00 758 
4.88220800781250e+03 1.22406923828125e+04 6.13986444473267e+00 759 
4.78834326171875e+03 1.23339042968750e+04 6.38416242599487e+00 760 
7.60922509765625e+03 1.25991064453125e+04 6.04350280761719e+00 761 
3.06064355468750e+03 4.33763465881348e+01 3.58040022850037e+00 762 
5.39572900390625e+03 4.70673828125000e+02 6.03558301925659e+00 763 
8.47689062500000e+03 5.85599609375000e+02 5.61122083663940e+00 764 
2.91756298828125e+03 7.00195617675781e+02 4.55874729156494e+00 765 
8.14956396484375e+03 1.13011975097656e+03 5.16077184677124e+00 766 
5.54460156250000e+03 1.55713671875000e+03 3.67487120628357e+00 767 
8.14892285156250e+03 1.78795019531250e+03 4.00143957138062e+00 768 
8.42451269531250e+03 1.95779504394531e+03 4.33503484725952e+00 769 
8.06319726562500e+03 1.96240087890625e+03 4.20077085494995e+00 770 
7.62188330078125e+03 3.15803344726562e+03 4.97440147399902e+00 771 
8.13705175781250e+03 3.26985937500000e+03 4.56113862991333e+00 772 
7.77810205078125e+03 3.55078198242188e+03 4.34347534179688e+00 773 
2.63111718750000e+03 3.40588720703125e+03 5.67691993713379e+00 774 
6.84225341796875e+03 3.79071630859375e+03 5.72603178024292e+00 775 
4.15794335937500e+03 4.14011474609375e+03 3.63258624076843e+00 776 
6.45480419921875e+03 4.38915478515625e+03 4.27110385894775e+00 777 
2.60269238281250e+03 4.46111523437500e+03 4.38336038589478e+00 778 
7.06048779296875e+03 4.75546142578125e+03 5.33915710449219e+00 779 
6.36598388671875e+03 4.96967724609375e+03 5.62282896041870e+00 780 
6.35299267578125e+03 5.00096533203125e+03 5.05089855194092e+00 781 
5.53080224609375e+03 5.52156054687500e+03 4.33046102523804e+00 782 
3.13423291015625e+03 5.94857861328125e+03 4.59557533264160e+00 783 
5.94181152343750e+03 6.03299023437500e+03 3.84442615509033e+00 784 
3.45942114257812e+03 6.05832470703125e+03 5.00676059722900e+00 785 
3.69862329101562e+03 6.14268554687500e+03 5.27087831497192e+00 786 
4.10259814453125e+03 6.51907324218750e+03 5.18025016784668e+00 787 
5.72157128906250e+03 6.73054785156250e+03 3.92748284339905e+00 788 
4.93366162109375e+03 7.10859521484375e+03 5.63166522979736e+00 789 
8.06476953125000e+03 7.36644531250000e+03 3.88524603843689e+00 790 
6.11261767578125e+03 7.43674951171875e+03 3.66863751411438e+00 791 
3.94191137695312e+03 7.77246923828125e+03 5.40635490417480e+00 792 
8.66876367187500e+03 8.16851708984375e+03 5.05836296081543e+00 793 
4.49198046875000e+03 8.28039160156250e+03 4.09502649307251e+00 794 
6.38182617187500e+03 8.74485742187500e+03 4.39122056961060e+00 795 
2.80806713867188e+03 8.68011816406250e+03 4.09929656982422e+00 796 
2.83695312500000e+03 8.69663183593750e+03 3.77891421318054e+00 797 
6.47081884765625e+03 8.88779980468750e+03 5.22536325454712e+00 798 
7.12826464843750e+03 9.07136621093750e+03 4.44416904449463e+00 799 
3.98123242187500e+03 9.05222851562500e+03 4.63077402114868e+00 800 
3.68764697265625e+03 9.12044628906250e+03 5.64109086990356e+00 801 
8.11726855468750e+03 9.72609863281250e+03 4.01747989654541e+00 802 
6.55447802734375e+03 9.68777343750000e+03 4.44082689285278e+00 803 
8.13230859375000e+03 9.73392187500000e+03 3.98822259902954e+00 804 
2.60542968750000e+03 9.68996972656250e+03 5.48238945007324e+00 805 
2.70196020507812e+03 9.76116210937500e+03 5.62936830520630e+00 806 
7.97367480468750e+03 1.00551289062500e+04 5.43496513366699e+00 807 
4.95407763671875e+03 1.01060185546875e+04 5.09765720367432e+00 808 
4.40927832031250e+03 1.01188291015625e+04 4.12071847915649e+00 809 
8.59747753906250e+03 1.04568857421875e+04 3.85741209983826e+00 810 
6.35146630859375e+03 1.05643583984375e+04 5.35784006118774e+00 811 
3.45077905273438e+03 1.05107246093750e+04 4.30916261672974e+00 812 
8.40524316406250e+03 1.09158906250000e+04 3.96534752845764e+00 813 
4.74003759765625e+03 1.08666240234375e+04 4.39499044418335e+00 814 
8.30843652343750e+03 1.09939814453125e+04 4.46079015731812e+00 815 
5.62638085937500e+03 1.11697861328125e+04 5.10632705688477e+00 816 
4.62667041015625e+03 1.13230117187500e+04 5.02440738677979e+00 817 
8.22984960937500e+03 1.15395742187500e+04 5.51359653472900e+00 818 
8.58442480468750e+03 1.16046474609375e+04 4.41984796524048e+00 819 
6.20103808593750e+03 1.15470439453125e+04 4.93535995483398e+00 820 
5.36661132812500e+03 1.15396640625000e+04 5.02491283416748e+00 821 
4.15203906250000e+03 1.15322207031250e+04 4.13435077667236e+00 822 
2.85493896484375e+03 1.15831894531250e+04 3.54057121276855e+00 823 
6.03757275390625e+03 1.17002246093750e+04 5.26765203475952e+00 824 
5.22612158203125e+03 1.17239013671875e+04 4.93602895736694e+00 825 
5.27230078125000e+03 1.17243769531250e+04 5.33006954193115e+00 826 
4.11050927734375e+03 1.17510087890625e+04 5.52588701248169e+00 827 
7.12179248046875e+03 1.19446875000000e+04 4.95998811721802e+00 828 
4.78764453125000e+03 1.20006660156250e+04 5.47764348983765e+00 829 
2.36134643554688e+03 1.21208818359375e+04 4.55208349227905e+00 830 
7.46597021484375e+03 1.24699082031250e+04 5.37772512435913e+00 831 
6.61937939453125e+03 1.24926523437500e+04 3.94439077377319e+00 832 
4.68039453125000e+03 1.24970527343750e+04 4.52211713790894e+00 833 
7.63123437500000e+03 1.25913388671875e+04 4.69752454757690e+00 834 
7.51304589843750e+03 1.26967558593750e+04 3.85480713844299e+00 835 
6.82416259765625e+03 1.29000019531250e+04 4.02205276489258e+00 836 
6.12492041015625e+03 1.29082236328125e+04 3.76472806930542e+00 837 
6.19534863281250e+03 1.29085322265625e+04 3.78844761848450e+00 838 
7.25838476562500e+03 1.16716430664062e+03 6.08165025711060e+00 839 
4.29387939453125e+03 5.56561572265625e+03 1.19467992782593e+01 840 
5.02617626953125e+03 1.01973281250000e+04 1.49636001586914e+01 841 
4.79304785156250e+03 1.02508632812500e+04 1.36157331466675e+01 842 
6.67712451171875e+03 8.20015686035156e+02 7.62029552459717e+00 843 
7.20536816406250e+03 8.36632812500000e+02 7.96366167068481e+00 844 
5.88195361328125e+03 9.02494873046875e+02 1.00095005035400e+01 845 
3.93540478515625e+03 8.47704772949219e+02 7.16756868362427e+00 846 
2.95561621093750e+03 1.38491320800781e+03 1.05868101119995e+01 847 
2.84811108398438e+03 3.03932666015625e+03 1.06803712844849e+01 848 
7.09709130859375e+03 3.20346118164062e+03 7.43236398696899e+00 849 
7.77936962890625e+03 3.56809350585938e+03 8.16636943817139e+00 850 
2.73081152343750e+03 3.83453540039062e+03 9.38263797760010e+00 851 
7.48856640625000e+03 5.28906054687500e+03 7.54835033416748e+00 852 
5.27695605468750e+03 5.83530175781250e+03 9.52448177337646e+00 853 
2.98670800781250e+03 7.98718896484375e+03 8.28997802734375e+00 854 
5.58564355468750e+03 8.64896484375000e+03 9.08739471435547e+00 855 
5.32614062500000e+03 9.04008984375000e+03 8.73593902587891e+00 856 
5.28931884765625e+03 9.16896289062500e+03 9.00095939636230e+00 857 
6.43683398437500e+03 1.02672128906250e+04 9.95187473297119e+00 858 
5.57095849609375e+03 1.05006083984375e+04 8.55209636688232e+00 859 
6.15712255859375e+03 1.05874541015625e+04 9.95287609100342e+00 860 
6.92592480468750e+03 1.06099365234375e+04 8.63670063018799e+00 861 
5.25258398437500e+03 1.05867714843750e+04 9.00871372222900e+00 862 
5.56076855468750e+03 1.06015830078125e+04 8.35658073425293e+00 863 
7.49789697265625e+03 1.15139902343750e+04 8.29451179504395e+00 864 
3.73678320312500e+03 1.18499472656250e+04 7.62597513198853e+00 865 
3.34832128906250e+03 1.19335986328125e+04 9.27498531341553e+00 866 
3.23404248046875e+03 7.74398925781250e+02 1.24415760040283e+01 867 
6.09189306640625e+03 1.11693688964844e+03 1.14458227157593e+01 868 
6.95654785156250e+03 9.35675976562500e+03 1.29756107330322e+01 869 
5.37187792968750e+03 1.01847001953125e+04 1.16201066970825e+01 870 
3.31002832031250e+03 1.02741542968750e+04 1.30794916152954e+01 871 
8.27824023437500e+03 1.24050654296875e+04 1.25225391387939e+01 872 
6.78887011718750e+03 1.79510650634766e+02 7.27241945266724e+00 873 
7.60151464843750e+03 2.87788757324219e+02 7.60876178741455e+00 874 
7.58303320312500e+03 3.12497192382812e+02 7.54370212554932e+00 875 
4.11088330078125e+03 7.56180908203125e+02 8.23789119720459e+00 876 
5.94421630859375e+03 1.02537841796875e+03 1.07015209197998e+01 877 
2.71168457031250e+03 1.23928515625000e+03 1.05458145141602e+01 878 
5.76264306640625e+03 3.30159619140625e+03 8.79075908660889e+00 879 
8.08000976562500e+03 4.37056250000000e+03 8.41433906555176e+00 880 
6.21564794921875e+03 4.76703955078125e+03 1.02518520355225e+01 881 
3.56618676757812e+03 4.71202685546875e+03 7.63327026367188e+00 882 
6.07822900390625e+03 7.24898925781250e+03 8.74059486389160e+00 883 
5.44066650390625e+03 8.64944042968750e+03 7.49817371368408e+00 884 
6.59052685546875e+03 8.75093945312500e+03 7.58669900894165e+00 885 
5.37306054687500e+03 9.33393847656250e+03 1.20964632034302e+01 886 
5.64105761718750e+03 9.76856835937500e+03 1.18115634918213e+01 887 
7.33007958984375e+03 9.85856738281250e+03 9.64435386657715e+00 888 
7.77102636718750e+03 1.01897294921875e+04 8.51877880096436e+00 889 
7.46295117187500e+03 1.10813476562500e+04 8.20042228698730e+00 890 
5.98197802734375e+03 1.16683300781250e+04 7.73990678787231e+00 891 
4.62665771484375e+03 1.21457207031250e+04 9.34170627593994e+00 892 
4.55407226562500e+03 1.22981904296875e+04 8.23644161224365e+00 893 
6.08157812500000e+03 2.23486083984375e+03 1.16521625518799e+01 894 
5.39805957031250e+03 8.58540820312500e+03 1.23828153610229e+01 895 
5.74228173828125e+03 9.65369042968750e+03 1.29716577529907e+01 896 
8.24282324218750e+03 1.03743173828125e+04 1.22810401916504e+01 897 
3.84271533203125e+03 1.03609550781250e+04 1.40615291595459e+01 898 
8.17240722656250e+03 1.09925361328125e+04 1.46017322540283e+01 899 
5.64372119140625e+03 1.22680273437500e+04 1.25934095382690e+01 900 
7.56468603515625e+03 3.36939666748047e+02 7.64051628112793e+00 901 
2.77510693359375e+03 5.21500732421875e+02 1.04324722290039e+01 902 
4.36807861328125e+03 1.21341601562500e+03 7.24063682556152e+00 903 
3.01288183593750e+03 3.01498754882812e+03 9.01247024536133e+00 904 
5.45396972656250e+03 3.43105541992188e+03 1.12573900222778e+01 905 
7.56389550781250e+03 4.39255908203125e+03 7.15873956680298e+00 906 
6.14539941406250e+03 7.02167578125000e+03 9.62507820129395e+00 907 
6.21338281250000e+03 7.05039062500000e+03 8.45576953887939e+00 908 
3.87660449218750e+03 7.93010302734375e+03 8.62363338470459e+00 909 
4.01329833984375e+03 8.15809619140625e+03 1.04510259628296e+01 910 
4.39849609375000e+03 8.59604687500000e+03 8.20593929290771e+00 911 
5.34702294921875e+03 8.72381347656250e+03 9.20260334014893e+00 912 
2.95736669921875e+03 9.00410546875000e+03 9.60997486114502e+00 913 
7.45259960937500e+03 9.59031250000000e+03 9.82845878601074e+00 914 
6.00875781250000e+03 9.86513476562500e+03 9.68856716156006e+00 915 
6.87040576171875e+03 1.00844658203125e+04 7.79661130905151e+00 916 
7.60879101562500e+03 1.13652695312500e+04 7.28273677825928e+00 917 
7.52729638671875e+03 1.14415654296875e+04 8.28666114807129e+00 918 
4.31250830078125e+03 1.18461699218750e+04 1.32183828353882e+01 919 
3.17469848632812e+03 1.24289140625000e+04 7.80988693237305e+00 920 
6.37796728515625e+03 4.13238525390625e+03 1.54226751327515e+01 921 
8.68345117187500e+03 5.12892382812500e+03 1.19268856048584e+01 922 
3.30517065429688e+03 8.72166796875000e+03 1.22950038909912e+01 923 
3.39631079101562e+03 8.75792382812500e+03 1.20367469787598e+01 924 
5.50685595703125e+03 9.29859570312500e+03 1.20945529937744e+01 925 
4.97289355468750e+03 1.02121630859375e+04 1.34200477600098e+01 926 
3.80140502929688e+03 1.03449208984375e+04 1.25064783096313e+01 927 
4.60838037109375e+03 2.23263476562500e+03 1.70599689483643e+01 928 
6.68201757812500e+03 5.64368945312500e+03 1.75155811309814e+01 929 
3.91346069335938e+03 6.50057617187500e+03 1.54147949218750e+01 930 
5.94167041015625e+03 9.58382324218750e+03 2.12242469787598e+01 931 
5.66529199218750e+03 1.00245849609375e+04 1.66594333648682e+01 932 
3.66605761718750e+03 1.02913017578125e+04 1.79728279113770e+01 933 
5.29862939453125e+03 1.05912695312500e+04 2.22151470184326e+01 934 
3.79712524414062e+03 1.08029375000000e+04 1.58564844131470e+01 935 
3.73203564453125e+03 3.01031640625000e+03 2.30576419830322e+01 936 
7.43204541015625e+03 3.69409497070312e+03 2.03961257934570e+01 937 
7.45644824218750e+03 5.23852246093750e+03 1.81722888946533e+01 938 
6.02491259765625e+03 9.86180859375000e+03 2.35798473358154e+01 939 
4.37693115234375e+03 1.01211347656250e+04 1.65162677764893e+01 940 
4.79356347656250e+03 1.03410332031250e+04 1.86888008117676e+01 941 
4.02247558593750e+03 1.18526962890625e+04 1.57064075469971e+01 942 
5.08483593750000e+03 1.27185595703125e+04 2.22650089263916e+01 943 
7.69026416015625e+03 1.16867968750000e+04 2.67615776062012e+01 944 
3.58676562500000e+03 6.54921264648438e+02 1.48311710357666e+01 945 
6.16810351562500e+03 7.27631152343750e+03 1.82709026336670e+01 946 
4.34992431640625e+03 9.29921191406250e+03 1.90621395111084e+01 947 
5.34445751953125e+03 1.02436621093750e+04 1.54085512161255e+01 948 
5.75611816406250e+03 9.14198535156250e+03 2.49027900695801e+01 949 
6.73226953125000e+03 1.09701621093750e+04 2.50200862884521e+01 950 
5.32956494140625e+03 1.72475173950195e+02 1.49389429092407e+01 951 
6.43819824218750e+03 3.23777124023438e+03 2.28724384307861e+01 952 
5.72714648437500e+03 9.94136035156250e+03 1.86026248931885e+01 953 
3.27333178710938e+03 1.15301777343750e+04 1.53067541122437e+01 954 
3.17863525390625e+03 1.18280400390625e+04 2.46935234069824e+01 955 
6.91549707031250e+03 1.26121679687500e+04 2.98581619262695e+01 956 
4.67225341796875e+03 9.60502380371094e+02 3.09809761047363e+01 957 
6.76837451171875e+03 1.24793583984375e+04 3.44886856079102e+01 958 
4.61742333984375e+03 1.10177050781250e+04 8.65325622558594e+01 959 
7.83487255859375e+03 5.53193408203125e+03 9.00312194824219e+01 960 
6.03661669921875e+03 8.17393798828125e+03 7.06122589111328e+01 961 
6.98869824218750e+03 1.02220976562500e+04 6.80560836791992e+01 962 
6.76327636718750e+03 2.00101577758789e+02 4.41157913208008e+00 963 
2.90479101562500e+03 5.43860900878906e+02 4.20291376113892e+00 964 
7.85563037109375e+03 8.71564025878906e+02 3.77489805221558e+00 965 
6.32004980468750e+03 8.44284362792969e+02 4.87017488479614e+00 966 
7.77575488281250e+03 9.66988464355469e+02 5.42650890350342e+00 967 
3.42647973632812e+03 8.42805786132812e+02 5.37270832061768e+00 968 
7.36093066406250e+03 1.69335021972656e+03 5.19793844223022e+00 969 
4.12681152343750e+03 1.60772241210938e+03 4.83838844299316e+00 970 
7.42876708984375e+03 1.81107580566406e+03 4.48629140853882e+00 971 
8.42211035156250e+03 1.90108520507812e+03 3.83019542694092e+00 972 
3.45261474609375e+03 1.90986645507812e+03 3.75993299484253e+00 973 
4.97577197265625e+03 2.67896875000000e+03 3.93679833412170e+00 974 
5.78023046875000e+03 2.70292382812500e+03 3.99585390090942e+00 975 
8.81169726562500e+03 2.89243261718750e+03 3.89514040946960e+00 976 
3.29858349609375e+03 2.78458349609375e+03 5.19208431243896e+00 977 
4.78204980468750e+03 2.92695678710938e+03 4.03504085540771e+00 978 
7.70798828125000e+03 4.43633300781250e+03 5.55439281463623e+00 979 
7.57941992187500e+03 4.52841357421875e+03 5.40476655960083e+00 980 
7.04443457031250e+03 4.73921337890625e+03 4.14539718627930e+00 981 
8.68328027343750e+03 4.82390527343750e+03 3.99017453193665e+00 982 
8.74385351562500e+03 4.86873291015625e+03 4.10453271865845e+00 983 
2.95524707031250e+03 4.93108544921875e+03 5.59474086761475e+00 984 
2.94928808593750e+03 4.94982421875000e+03 5.37646198272705e+00 985 
6.57568847656250e+03 5.80462158203125e+03 4.62742185592651e+00 986 
5.53584179687500e+03 5.83791943359375e+03 3.55634784698486e+00 987 
7.38637255859375e+03 6.28142382812500e+03 5.79252958297729e+00 988 
8.56693164062500e+03 6.71250488281250e+03 5.21623897552490e+00 989 
2.85328784179688e+03 6.66383105468750e+03 5.40515565872192e+00 990 
3.43992211914062e+03 6.78393066406250e+03 4.78402709960938e+00 991 
7.57072265625000e+03 6.96864013671875e+03 6.07090902328491e+00 992 
7.78448779296875e+03 7.15413085937500e+03 5.11266279220581e+00 993 
7.41425292968750e+03 7.36693701171875e+03 4.61522102355957e+00 994 
8.31525390625000e+03 7.44304443359375e+03 5.36854982376099e+00 995 
7.87490332031250e+03 7.83398144531250e+03 5.04238033294678e+00 996 
7.14420361328125e+03 7.96840429687500e+03 4.75646400451660e+00 997 
2.92881298828125e+03 7.96060205078125e+03 4.92852878570557e+00 998 
4.24560400390625e+03 8.09790527343750e+03 4.21560907363892e+00 999 
8.60293164062500e+03 8.38687109375000e+03 5.44441986083984e+00 1000 
6.95820361328125e+03 8.41265234375000e+03 6.31143331527710e+00 1001 
8.45980761718750e+03 8.58398535156250e+03 5.66792440414429e+00 1002 
8.37449511718750e+03 8.94093457031250e+03 4.19150781631470e+00 1003 
4.02067187500000e+03 8.91693554687500e+03 3.95590257644653e+00 1004 
3.94702026367188e+03 8.96227050781250e+03 3.68546581268311e+00 1005 
4.07159643554688e+03 8.98279492187500e+03 3.64669680595398e+00 1006 
6.63699462890625e+03 9.23973339843750e+03 5.16943216323853e+00 1007 
6.46683886718750e+03 9.63176074218750e+03 5.02586269378662e+00 1008 
2.74461450195312e+03 9.70732031250000e+03 5.39942646026611e+00 1009 
6.02976074218750e+03 9.83881835937500e+03 4.19349193572998e+00 1010 
2.56331127929688e+03 9.74335449218750e+03 5.52463674545288e+00 1011 
8.28441113281250e+03 9.98893750000000e+03 3.95727229118347e+00 1012 
7.88900048828125e+03 1.00754375000000e+04 4.28745603561401e+00 1013 
4.33690673828125e+03 1.01555078125000e+04 4.23878860473633e+00 1014 
6.17698242187500e+03 1.03406347656250e+04 5.25269412994385e+00 1015 
6.86809863281250e+03 1.06072802734375e+04 5.09572887420654e+00 1016 
2.47605175781250e+03 1.05700468750000e+04 4.10923576354980e+00 1017 
6.72970751953125e+03 1.07988134765625e+04 3.43227577209473e+00 1018 
8.31622167968750e+03 1.09759541015625e+04 4.13758134841919e+00 1019 
2.44943505859375e+03 1.08065517578125e+04 5.55635166168213e+00 1020 
7.96244873046875e+03 1.12691923828125e+04 3.97913312911987e+00 1021 
8.46193261718750e+03 1.13591933593750e+04 5.50215435028076e+00 1022 
7.56980908203125e+03 1.13516103515625e+04 4.57946968078613e+00 1023 
5.71252490234375e+03 1.15414707031250e+04 4.36600971221924e+00 1024 
3.63035327148438e+03 1.15233466796875e+04 4.17810010910034e+00 1025 
3.79173730468750e+03 1.15281601562500e+04 5.02019977569580e+00 1026 
3.60053369140625e+03 1.18448994140625e+04 4.25821638107300e+00 1027 
7.09550976562500e+03 1.19532001953125e+04 4.58468151092529e+00 1028 
2.47562304687500e+03 1.18907216796875e+04 4.50084161758423e+00 1029 
2.82675219726562e+03 1.19184521484375e+04 5.68758106231689e+00 1030 
5.52607519531250e+03 1.26773417968750e+04 4.28347826004028e+00 1031 
3.58586328125000e+03 1.28082294921875e+04 5.27773094177246e+00 1032 
8.71430175781250e+03 1.95325271606445e+02 6.08120107650757e+00 1033 
8.57691503906250e+03 5.59230834960938e+02 6.29014062881470e+00 1034 
8.64748828125000e+03 6.01312988281250e+02 5.97561025619507e+00 1035 
3.28787622070312e+03 8.87022277832031e+02 6.54669189453125e+00 1036 
7.01241650390625e+03 1.03535461425781e+03 6.15247535705566e+00 1037 
8.22320019531250e+03 1.26784094238281e+03 6.52179241180420e+00 1038 
5.09158740234375e+03 1.33565783691406e+03 7.18287086486816e+00 1039 
3.37357080078125e+03 1.58201245117188e+03 6.88067722320557e+00 1040 
8.08129150390625e+03 3.37187792968750e+03 6.27018690109253e+00 1041 
6.97516943359375e+03 3.48577758789062e+03 6.44857931137085e+00 1042 
6.31750341796875e+03 4.54375927734375e+03 6.07338762283325e+00 1043 
5.80737597656250e+03 4.57202050781250e+03 6.66026353836060e+00 1044 
8.56281347656250e+03 4.85408398437500e+03 6.84981298446655e+00 1045 
8.55298535156250e+03 4.88222753906250e+03 6.77097129821777e+00 1046 
8.49216796875000e+03 4.98598876953125e+03 6.25217533111572e+00 1047 
7.54276416015625e+03 5.83634472656250e+03 6.12597560882568e+00 1048 
7.95875732421875e+03 7.13706787109375e+03 5.57786703109741e+00 1049 
4.96244335937500e+03 7.12374755859375e+03 5.80126190185547e+00 1050 
5.17992578125000e+03 7.19387695312500e+03 6.27334880828857e+00 1051 
8.42603222656250e+03 7.29648193359375e+03 6.56965208053589e+00 1052 
5.73788623046875e+03 8.20357128906250e+03 6.81090164184570e+00 1053 
4.88426904296875e+03 8.28969726562500e+03 5.89376544952393e+00 1054 
4.51223730468750e+03 8.31273925781250e+03 6.52391862869263e+00 1055 
4.81587158203125e+03 8.70551660156250e+03 6.34545421600342e+00 1056 
7.35583203125000e+03 9.08704882812500e+03 5.56434345245361e+00 1057 
8.48762988281250e+03 9.65870996093750e+03 6.51669788360596e+00 1058 
7.86794726562500e+03 1.00946611328125e+04 6.47022676467896e+00 1059 
2.90631933593750e+03 9.96762695312500e+03 6.01247549057007e+00 1060 
6.64615039062500e+03 1.01091806640625e+04 6.55298137664795e+00 1061 
6.90850048828125e+03 1.07199892578125e+04 5.57859468460083e+00 1062 
5.33549218750000e+03 1.15372011718750e+04 6.19059133529663e+00 1063 
6.06516259765625e+03 1.16090517578125e+04 6.13719844818115e+00 1064 
2.84011010742188e+03 1.15254453125000e+04 6.48766803741455e+00 1065 
7.88178271484375e+03 1.19425917968750e+04 5.76771116256714e+00 1066 
5.89162890625000e+03 1.22702080078125e+04 6.47302103042603e+00 1067 
7.57845166015625e+03 1.24333544921875e+04 5.69346618652344e+00 1068 
8.14120312500000e+03 1.26274199218750e+04 6.92284822463989e+00 1069 
3.28815380859375e+03 1.25108994140625e+04 5.89069652557373e+00 1070 
3.37595068359375e+03 1.25750947265625e+04 5.92303800582886e+00 1071 
4.42473339843750e+03 1.26403027343750e+04 5.77446269989014e+00 1072 
4.38991650390625e+03 1.27624472656250e+04 5.88011550903320e+00 1073 
3.13118017578125e+03 5.88672790527344e+02 5.30565166473389e+00 1074 
8.69651660156250e+03 1.49573010253906e+03 4.96300601959229e+00 1075 
8.08292236328125e+03 1.96631225585938e+03 3.89879512786865e+00 1076 
4.66334326171875e+03 2.59799926757812e+03 4.94928503036499e+00 1077 
2.78021386718750e+03 2.63456982421875e+03 4.81922960281372e+00 1078 
6.74459570312500e+03 2.83945141601562e+03 3.61874151229858e+00 1079 
5.86669580078125e+03 2.90805053710938e+03 4.63537740707397e+00 1080 
4.91949267578125e+03 3.00223876953125e+03 3.94880938529968e+00 1081 
6.99796582031250e+03 3.46563769531250e+03 5.38324451446533e+00 1082 
4.59978173828125e+03 3.63449609375000e+03 4.14538002014160e+00 1083 
7.27709179687500e+03 3.73269360351562e+03 4.19675254821777e+00 1084 
