ply
format ascii 1.0
element vertex 698
property double x
property double y
property double size
property short id
end_header
4.26738769531250e+03 2.97199145507812e+03 6.31094741821289e+00 344 
4.20661572265625e+03 1.26910925292969e+03 5.58011531829834e+00 345 
7.35039306640625e+03 8.26455957031250e+03 4.56462430953979e+00 346 
6.64906201171875e+03 8.08476855468750e+03 4.18672513961792e+00 347 
4.80143408203125e+03 7.75538476562500e+03 5.40445852279663e+00 348 
4.37240429687500e+03 7.67319433593750e+03 3.73691082000732e+00 349 
3.59243579101562e+03 6.50929589843750e+03 4.65316152572632e+00 353 
4.74049951171875e+03 6.62843652343750e+03 4.18670988082886e+00 354 
5.50042089843750e+03 6.08748046875000e+03 5.51469373703003e+00 356 
5.77815283203125e+03 4.75286132812500e+03 4.69464826583862e+00 359 
4.58768994140625e+03 4.25542089843750e+03 5.42899608612061e+00 361 
3.29304321289062e+03 3.65359863281250e+03 4.66434144973755e+00 362 
7.28039550781250e+03 3.82577368164062e+03 5.27831792831421e+00 363 
8.57981152343750e+03 3.81164550781250e+03 4.86837291717529e+00 364 
7.02027685546875e+03 2.95315307617188e+03 5.27088356018066e+00 365 
6.32784277343750e+03 5.81226501464844e+02 5.68867206573486e+00 370 
5.23795605468750e+03 1.47466674804688e+02 4.05527448654175e+00 371 
3.57485424804688e+03 7.95007226562500e+03 6.77552461624146e+00 372 
4.79127978515625e+03 7.88800244140625e+03 5.70749807357788e+00 373 
3.62043286132812e+03 7.72938476562500e+03 6.21870660781860e+00 374 
4.90796923828125e+03 7.79044824218750e+03 6.12916135787964e+00 375 
2.57499877929688e+03 7.22510351562500e+03 6.00723886489868e+00 376 
4.62362060546875e+03 6.19580957031250e+03 5.75230598449707e+00 378 
2.73696142578125e+03 5.53790722656250e+03 5.74852132797241e+00 379 
2.64941503906250e+03 4.60287597656250e+03 6.87213563919067e+00 380 
3.87361621093750e+03 4.04253247070312e+03 6.31646108627319e+00 381 
4.56049902343750e+03 3.93117822265625e+03 6.04162025451660e+00 382 
4.29347314453125e+03 2.72635253906250e+03 7.09537363052368e+00 383 
3.87430102539062e+03 2.10687451171875e+03 6.45303153991699e+00 384 
3.10044873046875e+03 1.30960925292969e+03 6.06951761245728e+00 385 
3.21553076171875e+03 1.31373095703125e+03 5.72284603118896e+00 386 
4.87256347656250e+03 9.07825317382812e+02 6.21995878219604e+00 387 
3.14260986328125e+03 9.10532073974609e+01 6.64239311218262e+00 388 
3.23288549804688e+03 5.72324658203125e+03 8.69747352600098e+00 391 
3.29885253906250e+03 1.19608959960938e+03 8.19747829437256e+00 393 
3.15344091796875e+03 1.14086450195312e+03 9.21609592437744e+00 394 
3.61675927734375e+03 7.75632128906250e+03 6.19938468933105e+00 397 
8.07385937500000e+03 7.07792773437500e+03 5.89698171615601e+00 399 
3.86688818359375e+03 6.53745507812500e+03 5.93690204620361e+00 400 
4.89618359375000e+03 6.29284814453125e+03 5.91149139404297e+00 401 
4.69374414062500e+03 5.31748876953125e+03 5.89091110229492e+00 402 
4.06614794921875e+03 3.68016894531250e+03 5.99762535095215e+00 406 
4.27729052734375e+03 1.33437670898438e+03 6.83349275588989e+00 407 
7.92115527343750e+03 8.18213183593750e+03 4.33233594894409e+00 409 
4.12330273437500e+03 7.61063427734375e+03 5.59759473800659e+00 410 
3.30959985351562e+03 7.34693164062500e+03 6.15170335769653e+00 412 
5.46427490234375e+03 7.07735791015625e+03 5.28824090957642e+00 413 
3.58786914062500e+03 6.53812548828125e+03 4.58183050155640e+00 414 
5.33383740234375e+03 6.72444677734375e+03 5.19559431076050e+00 415 
3.90116235351562e+03 6.45647265625000e+03 4.97574186325073e+00 416 
3.87949902343750e+03 6.45474755859375e+03 5.72929191589355e+00 417 
8.15337353515625e+03 5.70304248046875e+03 5.47180557250977e+00 421 
2.63499487304688e+03 4.73222021484375e+03 5.51159858703613e+00 422 
2.89503930664062e+03 3.26774291992188e+03 4.09164237976074e+00 425 
5.27411083984375e+03 1.33995800781250e+03 4.85668277740479e+00 430 
5.27489550781250e+03 8.70936218261719e+02 4.30114316940308e+00 431 
5.27293750000000e+03 8.53788269042969e+02 4.11771154403687e+00 432 
4.51111523437500e+03 6.01634948730469e+02 5.13395786285400e+00 433 
3.58037426757812e+03 7.91723193359375e+03 6.68278980255127e+00 436 
2.78310742187500e+03 7.74013232421875e+03 6.13337802886963e+00 438 
4.15583935546875e+03 7.60397753906250e+03 5.49861955642700e+00 439 
3.66197656250000e+03 7.46479150390625e+03 6.40370035171509e+00 440 
2.65837524414062e+03 6.68120117187500e+03 6.04231214523315e+00 442 
2.66612988281250e+03 6.63162255859375e+03 6.61881780624390e+00 443 
5.16369433593750e+03 6.74320263671875e+03 6.99131298065186e+00 444 
3.56475048828125e+03 6.51119677734375e+03 6.59234380722046e+00 445 
3.62246069335938e+03 6.14654296875000e+03 6.71192979812622e+00 446 
3.70909936523438e+03 5.96355810546875e+03 6.75239276885986e+00 447 
7.01443164062500e+03 6.14999804687500e+03 6.27582263946533e+00 448 
2.83631640625000e+03 5.63967187500000e+03 5.92545127868652e+00 449 
2.84233471679688e+03 5.31614697265625e+03 6.27853155136108e+00 450 
2.68359790039062e+03 4.75775732421875e+03 6.51752424240112e+00 452 
6.00047753906250e+03 8.06789306640625e+03 8.55433082580566e+00 453 
6.06817382812500e+03 6.87782226562500e+03 8.50200939178467e+00 454 
5.21622363281250e+03 7.93674658203125e+03 1.40795040130615e+01 455 
8.25010742187500e+03 1.81018652343750e+03 1.32201204299927e+01 456 
3.25697290039062e+03 6.64392480468750e+03 8.10985279083252e+00 457 
5.32204736328125e+03 1.66177514648438e+03 7.71489191055298e+00 458 
8.66849609375000e+03 5.74875488281250e+03 1.17094135284424e+01 459 
3.90144848632812e+03 4.81264843750000e+03 1.87280311584473e+01 460 
6.96010839843750e+03 1.10109394531250e+04 3.59986710548401e+00 461 
7.19861816406250e+03 7.53359960937500e+03 3.61729354858398e+01 462 
3.24721142578125e+03 6.65041406250000e+03 3.83000183105469e+00 463 
4.47428613281250e+03 1.06156958007812e+03 3.81735658645630e+00 464 
6.83950292968750e+03 1.65528854370117e+02 4.34624338150024e+00 465 
6.07886621093750e+03 7.98049316406250e+03 5.81750154495239e+00 466 
3.23386840820312e+03 3.01270166015625e+03 5.89603042602539e+00 467 
3.95885961914062e+03 7.50227783203125e+03 3.92521834373474e+00 468 
5.26723486328125e+03 7.41925097656250e+03 5.62418794631958e+00 469 
5.33208984375000e+03 1.73825866699219e+03 4.85441446304321e+00 470 
4.48021630859375e+03 6.75806738281250e+03 4.00593757629395e+00 471 
3.35029394531250e+03 6.47885253906250e+03 5.93329095840454e+00 472 
3.28795971679688e+03 6.44840917968750e+03 9.77461051940918e+00 473 
5.09059814453125e+03 6.96625927734375e+03 6.28828096389771e+00 474 
2.89507519531250e+03 7.51691162109375e+03 6.78442811965942e+00 475 
4.72488671875000e+03 6.24417089843750e+03 9.70582866668701e+00 476 
7.61267333984375e+03 5.95362646484375e+03 7.87287044525146e+00 477 
8.38787402343750e+03 3.46012304687500e+03 9.81042480468750e+00 478 
8.23137109375000e+03 1.83936938476562e+03 1.22870035171509e+01 479 
4.92130761718750e+03 7.94198095703125e+03 7.49963617324829e+00 480 
3.63284521484375e+03 7.64216845703125e+03 7.22406625747681e+00 481 
4.47695605468750e+03 6.77192285156250e+03 8.68636226654053e+00 482 
7.84979199218750e+03 6.38241015625000e+03 9.14850521087646e+00 483 
3.89045385742188e+03 1.66212988281250e+03 1.43885278701782e+01 484 
4.00939868164062e+03 7.92926513671875e+03 9.10689067840576e+00 485 
4.59067822265625e+03 1.81208203125000e+03 1.02889432907104e+01 486 
3.97983105468750e+03 2.58867187500000e+03 1.27076778411865e+01 487 
6.44695654296875e+03 8.16072326660156e+02 1.45981302261353e+01 488 
2.93107397460938e+03 6.62040527343750e+03 2.62790641784668e+01 489 
3.88178906250000e+03 2.36918017578125e+03 1.58333644866943e+01 490 
5.37188525390625e+03 2.03501074218750e+03 5.90094642639160e+01 491 
4.88591894531250e+03 1.75108862304688e+03 1.22071884155273e+02 492 
4.19528027343750e+03 7.64490869140625e+03 4.92359876632690e+00 493 
4.82992919921875e+03 7.14381005859375e+03 4.15702295303345e+00 494 
4.72006542968750e+03 6.64044970703125e+03 3.73735189437866e+00 495 
3.24941772460938e+03 5.70339892578125e+03 3.80299377441406e+00 496 
7.51558007812500e+03 5.47891796875000e+03 5.42342996597290e+00 497 
8.18285058593750e+03 5.10278417968750e+03 5.12929058074951e+00 498 
5.17301611328125e+03 3.88532373046875e+03 5.49997138977051e+00 499 
4.69509423828125e+03 3.13813159179688e+03 5.08691072463989e+00 500 
6.11184082031250e+03 3.22016845703125e+03 4.60908508300781e+00 501 
4.52632080078125e+03 2.70930371093750e+03 5.30031013488770e+00 502 
6.15137060546875e+03 4.91013458251953e+02 4.33948755264282e+00 503 
2.52307592773438e+03 7.54679541015625e+03 6.32378101348877e+00 504 
2.46544555664062e+03 7.24481103515625e+03 5.93824243545532e+00 505 
8.40709082031250e+03 7.44279248046875e+03 6.10023546218872e+00 506 
5.20025048828125e+03 3.43120092773438e+03 6.08621692657471e+00 507 
6.20232324218750e+03 4.51589691162109e+02 7.57728767395020e+00 508 
8.56236132812500e+03 1.58167892456055e+02 6.76924276351929e+00 509 
6.71967333984375e+03 8.28708789062500e+03 4.27538776397705e+00 510 
2.67156079101562e+03 7.74983593750000e+03 5.14958047866821e+00 511 
4.71471484375000e+03 7.84162890625000e+03 4.62428569793701e+00 512 
5.21946191406250e+03 7.73998925781250e+03 5.08082962036133e+00 513 
3.61487158203125e+03 6.28230322265625e+03 5.17747306823730e+00 514 
5.41491650390625e+03 5.46546875000000e+03 4.80130052566528e+00 515 
8.69840625000000e+03 5.64698339843750e+03 3.70618581771851e+00 516 
2.59291894531250e+03 4.60645996093750e+03 5.37580919265747e+00 517 
2.77231005859375e+03 3.98266064453125e+03 4.82386684417725e+00 518 
7.69739355468750e+03 3.69200048828125e+03 3.92123222351074e+00 519 
4.70340722656250e+03 3.12833007812500e+03 5.37245225906372e+00 520 
8.57135156250000e+03 3.83203100585938e+03 5.63357877731323e+00 521 
6.75656103515625e+03 1.30320236206055e+02 6.53979063034058e+00 522 
3.59989575195312e+03 7.95090136718750e+03 4.09550619125366e+00 523 
8.08344238281250e+03 7.47017333984375e+03 4.34428548812866e+00 524 
6.12385595703125e+03 5.06578320312500e+03 3.97413396835327e+00 525 
5.89712841796875e+03 4.92180468750000e+03 4.48078107833862e+00 526 
4.83743505859375e+03 3.90560668945312e+03 5.04826927185059e+00 527 
8.47764062500000e+03 4.03209082031250e+03 5.09584903717041e+00 528 
4.09033813476562e+03 2.81580273437500e+03 3.63371729850769e+00 529 
6.85388281250000e+03 1.74251794433594e+03 5.23905563354492e+00 530 
2.27801928710938e+03 7.19325146484375e+03 5.89544916152954e+00 531 
5.03442187500000e+03 5.78564062500000e+03 6.65613746643066e+00 532 
2.62467260742188e+03 5.47552734375000e+03 6.10968875885010e+00 533 
3.12885742187500e+03 4.86647021484375e+03 5.71921825408936e+00 534 
7.08325537109375e+03 4.66625781250000e+03 7.09937477111816e+00 535 
3.72676245117188e+03 1.40146520996094e+03 9.06718921661377e+00 536 
8.77615917968750e+03 7.92059631347656e+02 8.91110515594482e+00 537 
6.53657324218750e+03 7.10385107421875e+03 1.24544305801392e+01 538 
8.10612841796875e+03 3.53730810546875e+03 1.15075216293335e+01 539 
3.84066357421875e+03 5.12739379882812e+02 4.03761291503906e+00 540 
3.95502465820312e+03 7.51599707031250e+03 5.89450550079346e+00 541 
4.56790136718750e+03 7.03608593750000e+03 6.10999011993408e+00 542 
5.35957128906250e+03 6.45564599609375e+03 5.60541868209839e+00 543 
2.81938818359375e+03 5.33821044921875e+03 6.77712869644165e+00 544 
7.71776123046875e+03 5.71705419921875e+03 6.38866996765137e+00 545 
7.69013818359375e+03 5.09092529296875e+03 6.50237417221069e+00 546 
6.83326708984375e+03 1.76478973388672e+02 6.30149459838867e+00 547 
3.42933862304688e+03 6.32445605468750e+03 5.01730585098267e+00 548 
7.87694726562500e+03 6.42770800781250e+03 5.04921531677246e+00 549 
2.46026074218750e+03 5.62611914062500e+03 3.61832952499390e+00 550 
7.50868359375000e+03 5.33836279296875e+03 5.29831504821777e+00 551 
2.98492895507812e+03 9.25216064453125e+02 4.17370223999023e+00 552 
4.68111083984375e+03 2.68998718261719e+02 4.62926864624023e+00 553 
5.76918896484375e+03 4.05580520629883e+01 4.38142108917236e+00 554 
2.69943237304688e+03 7.72893554687500e+03 7.10689067840576e+00 555 
4.86283837890625e+03 7.92300097656250e+03 6.15324306488037e+00 556 
4.38556347656250e+03 7.70778955078125e+03 6.88605213165283e+00 557 
7.11056103515625e+03 6.76643701171875e+03 6.04734563827515e+00 558 
4.59416113281250e+03 6.20062011718750e+03 6.06457138061523e+00 559 
7.63555224609375e+03 5.89876806640625e+03 6.02751636505127e+00 560 
8.72321289062500e+03 5.62585351562500e+03 7.00281858444214e+00 561 
2.59960058593750e+03 4.58618310546875e+03 5.93308687210083e+00 562 
3.08907983398438e+03 8.41558789062500e+03 5.89391756057739e+00 569 
5.37568847656250e+03 7.03206005859375e+03 3.43773508071899e+00 570 
6.43483398437500e+03 7.87217919921875e+03 4.17216444015503e+00 571 
5.55093115234375e+03 8.10143603515625e+03 4.14742231369019e+00 572 
6.80286767578125e+03 1.02259970703125e+04 3.97019720077515e+00 573 
4.83754541015625e+03 1.08885839843750e+04 4.12945270538330e+00 576 
6.31672363281250e+03 5.64920019531250e+03 4.30972957611084e+00 582 
8.32170312500000e+03 8.78821093750000e+03 4.66829395294189e+00 583 
8.65529394531250e+03 1.17751330566406e+03 6.97918367385864e+00 586 
5.93286914062500e+03 2.85672363281250e+03 3.83587145805359e+00 588 
7.07651953125000e+03 7.80764257812500e+03 3.91109299659729e+00 590 
6.75285888671875e+03 4.05283874511719e+02 5.33291578292847e+00 597 
8.74062890625000e+03 7.51039453125000e+03 1.11086034774780e+01 600 
6.52600634765625e+03 1.12806464843750e+04 1.20667991638184e+01 602 
7.19248095703125e+03 7.14120507812500e+03 6.15008926391602e+00 605 
8.54177734375000e+03 1.07760302734375e+04 9.05890750885010e+00 606 
6.21093408203125e+03 5.59608007812500e+03 5.23289346694946e+00 612 
7.98313232421875e+03 9.14456835937500e+03 6.26667118072510e+00 614 
5.94100488281250e+03 1.06326992187500e+04 1.75225219726562e+01 620 
8.38598925781250e+03 8.27917285156250e+03 1.34610519409180e+01 625 
7.11804687500000e+03 7.70236816406250e+03 3.21668624877930e+01 632 
6.22371093750000e+03 1.09913759765625e+04 3.81677627563477e+01 634 
6.44927343750000e+03 3.62102856445312e+03 4.43658638000488e+00 637 
8.46144531250000e+03 4.52354931640625e+03 4.10473346710205e+00 638 
6.74110791015625e+03 1.18903369140625e+04 4.79867458343506e+00 649 
5.53413964843750e+03 1.25085595703125e+04 4.17623805999756e+00 651 
5.46890966796875e+03 8.61832714843750e+03 5.19144678115845e+00 653 
7.64674023437500e+03 1.42904235839844e+03 3.83713030815125e+00 658 
8.24407519531250e+03 1.85437023925781e+03 4.65679931640625e+00 659 
7.60030908203125e+03 2.50961254882812e+03 3.88675642013550e+00 660 
7.03126806640625e+03 3.29860913085938e+03 3.74654912948608e+00 663 
8.37113476562500e+03 3.49456005859375e+03 4.10862445831299e+00 664 
8.03066748046875e+03 3.60903662109375e+03 3.91950893402100e+00 666 
6.33027929687500e+03 3.58987158203125e+03 4.01031303405762e+00 667 
6.67544482421875e+03 3.67297656250000e+03 4.33436250686646e+00 668 
7.85654248046875e+03 3.76560424804688e+03 3.88349771499634e+00 669 
6.08076904296875e+03 4.79369140625000e+03 3.75213813781738e+00 670 
6.55412207031250e+03 2.10874975585938e+03 7.60049629211426e+00 671 
5.99910351562500e+03 2.01998645019531e+03 4.88506031036377e+00 678 
5.98726806640625e+03 3.94853027343750e+03 4.11950922012329e+00 683 
7.47558642578125e+03 7.24752441406250e+03 4.44874143600464e+00 690 
8.11066064453125e+03 7.28700927734375e+03 4.10302495956421e+00 691 
7.58542919921875e+03 1.24120000000000e+04 4.22504329681396e+00 697 
7.74603417968750e+03 1.07605019531250e+04 1.24441690444946e+01 702 
8.18637841796875e+03 6.61882519531250e+03 4.30556106567383e+00 705 
8.29807714843750e+03 7.98310302734375e+03 4.86042833328247e+00 709 
5.55986279296875e+03 8.44388964843750e+03 3.94861578941345e+00 713 
7.34728417968750e+03 8.66314843750000e+03 4.88340520858765e+00 714 
4.92759277343750e+03 9.80443066406250e+03 5.23147964477539e+00 720 
7.42403173828125e+03 1.02782705078125e+04 4.08429098129272e+00 722 
7.31803222656250e+03 1.04696611328125e+04 4.26439189910889e+00 723 
6.06918115234375e+03 1.16361162109375e+04 5.16410064697266e+00 729 
7.57587597656250e+03 1.24062666015625e+04 4.41595506668091e+00 731 
7.82235644531250e+03 1.24207812500000e+04 5.73947811126709e+00 732 
7.88954248046875e+03 1.24220576171875e+04 4.02585983276367e+00 733 
8.22341503906250e+03 1.24442207031250e+04 5.88949632644653e+00 734 
5.74787548828125e+03 1.29259794921875e+04 4.48559093475342e+00 740 
6.31416943359375e+03 3.20604052734375e+03 6.54447937011719e+00 745 
8.14437304687500e+03 5.19839306640625e+03 6.67290258407593e+00 750 
6.95817871093750e+03 8.43074609375000e+03 6.23964929580688e+00 753 
5.17598388671875e+03 8.73779589843750e+03 5.93473100662231e+00 754 
6.30222314453125e+03 9.71873730468750e+03 6.76149225234985e+00 756 
7.23630566406250e+03 1.23901123046875e+04 6.35896682739258e+00 759 
5.61524365234375e+03 7.69159667968750e+02 4.07343721389771e+00 765 
5.27402050781250e+03 3.46854150390625e+03 5.68001031875610e+00 774 
5.18721191406250e+03 4.52333740234375e+03 4.07902669906616e+00 778 
8.08778369140625e+03 5.67505664062500e+03 4.04534196853638e+00 782 
5.67372363281250e+03 6.03045751953125e+03 4.30467939376831e+00 783 
5.99739892578125e+03 6.14958154296875e+03 4.88626527786255e+00 785 
6.23356787109375e+03 6.24102050781250e+03 5.17294025421143e+00 786 
8.24327734375000e+03 6.89080957031250e+03 3.87978720664978e+00 788 
6.42730615234375e+03 7.88096484375000e+03 5.20679569244385e+00 792 
6.96363427734375e+03 8.40750781250000e+03 3.64845800399780e+00 794 
5.29001660156250e+03 8.77426953125000e+03 3.70781469345093e+00 797 
6.42868554687500e+03 9.16490917968750e+03 4.69766521453857e+00 800 
5.13664062500000e+03 9.83721679687500e+03 5.63122272491455e+00 806 
8.76030566406250e+03 1.07535263671875e+04 5.34169292449951e+00 811 
5.84916259765625e+03 1.06112509765625e+04 4.50532054901123e+00 812 
8.01140234375000e+03 1.13387392578125e+04 5.17812824249268e+00 816 
7.02679052734375e+03 1.14622226562500e+04 4.88302326202393e+00 817 
8.57943164062500e+03 1.17341181640625e+04 4.70513820648193e+00 820 
7.74393408203125e+03 1.17017197265625e+04 4.61371088027954e+00 821 
5.22423974609375e+03 1.16689023437500e+04 3.59002351760864e+00 823 
8.43232324218750e+03 1.18836435546875e+04 5.30820798873901e+00 824 
7.62265673828125e+03 1.18824892578125e+04 4.83298540115356e+00 825 
7.66895263671875e+03 1.18847343750000e+04 5.41172122955322e+00 826 
6.50349414062500e+03 1.18762392578125e+04 5.56655406951904e+00 827 
7.14894140625000e+03 1.21463642578125e+04 5.43931579589844e+00 829 
7.02879687500000e+03 1.26410312500000e+04 3.68680882453918e+00 833 
7.44490722656250e+03 1.03449257812500e+04 1.58600740432739e+01 841 
7.20689160156250e+03 1.03915019531250e+04 1.37245407104492e+01 842 
6.63055810546875e+03 9.46896240234375e+02 7.00956821441650e+00 846 
5.62208349609375e+03 1.19585302734375e+03 1.05561132431030e+01 847 
5.33338378906250e+03 3.90059838867188e+03 9.54373550415039e+00 851 
7.77373144531250e+03 9.19441210937500e+03 8.94038200378418e+00 856 
7.73285498046875e+03 9.32159765625000e+03 8.86705875396729e+00 857 
7.97453759765625e+03 1.06709208984375e+04 8.11779308319092e+00 859 
8.56589843750000e+03 1.07706425781250e+04 1.04918498992920e+01 860 
7.65477246093750e+03 1.07403056640625e+04 9.73479938507080e+00 862 
7.96158154296875e+03 1.07697539062500e+04 8.29362297058105e+00 863 
6.12695996093750e+03 1.19643134765625e+04 7.43990802764893e+00 865 
5.70702294921875e+03 1.20351230468750e+04 9.77821445465088e+00 866 
5.94901953125000e+03 8.52916137695312e+02 1.27777605056763e+01 867 
5.71948632812500e+03 1.03691621093750e+04 1.31260366439819e+01 871 
6.81033056640625e+03 8.60874206542969e+02 8.88496780395508e+00 876 
8.67661035156250e+03 1.18460632324219e+03 9.71726989746094e+00 877 
5.39435009765625e+03 1.30190551757812e+03 1.07736520767212e+01 878 
6.14523779296875e+03 4.80401611328125e+03 7.83494567871094e+00 882 
8.58442968750000e+03 7.42160791015625e+03 9.10354232788086e+00 883 
7.81617822265625e+03 9.48823828125000e+03 1.38883247375488e+01 886 
8.06731298828125e+03 9.93379003906250e+03 1.22756643295288e+01 887 
7.00879101562500e+03 1.22876865234375e+04 9.39430141448975e+00 892 
7.86034960937500e+03 8.74013476562500e+03 1.24504470825195e+01 895 
7.99955224609375e+03 1.24405644531250e+04 1.30627450942993e+01 900 
5.47852343750000e+03 5.86655212402344e+02 1.01204156875610e+01 902 
8.08735498046875e+03 3.57840795898438e+03 1.12724933624268e+01 905 
8.65955859375000e+03 7.19576562500000e+03 9.57735157012939e+00 907 
8.72534082031250e+03 7.22723144531250e+03 8.13466453552246e+00 908 
6.35924853515625e+03 8.03707324218750e+03 8.73087501525879e+00 909 
6.88746679687500e+03 8.72159472656250e+03 8.20963096618652e+00 911 
7.80449414062500e+03 8.87527929687500e+03 8.47558975219727e+00 912 
5.76701416015625e+03 8.81343847656250e+03 1.28997268676758e+01 923 
5.85659863281250e+03 8.85206542968750e+03 1.26187028884888e+01 924 
7.94722167968750e+03 9.45857714843750e+03 1.19533576965332e+01 925 
7.26737402343750e+03 2.35318969726562e+03 1.77482070922852e+01 928 
6.46997705078125e+03 6.60590673828125e+03 1.44335460662842e+01 930 
8.08777246093750e+03 1.01902421875000e+04 1.51427135467529e+01 932 
6.07346191406250e+03 1.03986718750000e+04 1.84218750000000e+01 933 
6.19180664062500e+03 1.09147236328125e+04 1.61066589355469e+01 935 
6.36240722656250e+03 3.10530688476562e+03 2.30869083404541e+01 936 
8.46017089843750e+03 1.00412304687500e+04 2.23897571563721e+01 939 
6.79472216796875e+03 1.02486162109375e+04 1.61457023620605e+01 940 
7.20099462890625e+03 1.04824716796875e+04 1.88865718841553e+01 941 
6.41276855468750e+03 1.19752480468750e+04 1.55000562667847e+01 942 
8.67251269531250e+03 7.45087158203125e+03 1.84802474975586e+01 946 
6.81421533203125e+03 9.42564648437500e+03 1.89618797302246e+01 947 
8.20730273437500e+03 9.30954785156250e+03 2.53979282379150e+01 949 
8.14836230468750e+03 1.01102851562500e+04 1.85302124023438e+01 953 
7.01424169921875e+03 1.11570400390625e+04 9.10114135742188e+01 959 
5.63064746093750e+03 6.12439270019531e+02 4.09578609466553e+00 964 
6.11478955078125e+03 1.99527124023438e+03 3.76518583297729e+00 973 
7.61771093750000e+03 2.81127539062500e+03 4.01566457748413e+00 974 
8.43674609375000e+03 2.86016479492188e+03 3.95060753822327e+00 975 
5.93342871093750e+03 2.86647973632812e+03 5.34012794494629e+00 977 
5.52757910156250e+03 5.00562011718750e+03 5.21910047531128e+00 984 
5.51916796875000e+03 5.02334082031250e+03 5.31825256347656e+00 985 
5.37109228515625e+03 6.73742236328125e+03 5.22998285293579e+00 990 
5.95535595703125e+03 6.87595214843750e+03 4.49582624435425e+00 991 
6.75160107421875e+03 8.21803222656250e+03 4.08958053588867e+00 999 
6.41573974609375e+03 9.07451953125000e+03 3.91489911079407e+00 1005 
6.52892285156250e+03 9.09851757812500e+03 3.63908600807190e+00 1006 
5.18097900390625e+03 9.78447656250000e+03 5.37523841857910e+00 1009 
8.46059863281250e+03 1.00159677734375e+04 4.33092164993286e+00 1010 
4.99804833984375e+03 9.81527148437500e+03 5.53282785415649e+00 1011 
8.59132812500000e+03 1.05238291015625e+04 5.22501182556152e+00 1015 
4.83914843750000e+03 1.08773662109375e+04 5.57603454589844e+00 1020 
8.09080957031250e+03 1.17140488281250e+04 4.22271442413330e+00 1024 
6.00209521484375e+03 1.16326171875000e+04 4.45801353454590e+00 1025 
6.16372705078125e+03 1.16424189453125e+04 5.01776027679443e+00 1026 
5.99120410156250e+03 1.19550712890625e+04 4.68742322921753e+00 1027 
5.21615283203125e+03 1.20050849609375e+04 5.53454542160034e+00 1030 
7.89842871093750e+03 1.28488154296875e+04 4.17277431488037e+00 1031 
5.98289697265625e+03 9.66547180175781e+02 6.91784667968750e+00 1036 
7.77359375000000e+03 1.47045166015625e+03 7.15915060043335e+00 1039 
6.04707080078125e+03 1.66489575195312e+03 6.94492626190186e+00 1040 
7.47149072265625e+03 7.26290185546875e+03 5.71348333358765e+00 1050 
7.68760351562500e+03 7.33955126953125e+03 6.29091453552246e+00 1051 
8.21357714843750e+03 8.36785351562500e+03 6.67503833770752e+00 1053 
7.35765625000000e+03 8.42930761718750e+03 5.70825386047363e+00 1054 
6.98416552734375e+03 8.44073632812500e+03 6.61346054077148e+00 1055 
7.27666503906250e+03 8.84280761718750e+03 6.19732141494751e+00 1056 
5.32513281250000e+03 1.00500722656250e+04 5.83723449707031e+00 1060 
7.71152880859375e+03 1.16983388671875e+04 6.50558900833130e+00 1063 
5.20962597656250e+03 1.16105439453125e+04 6.47488641738892e+00 1065 
5.71558740234375e+03 1.26797705078125e+04 5.76443576812744e+00 1071 
5.83354394531250e+03 6.63327514648438e+02 5.23773479461670e+00 1074 
7.32300927734375e+03 2.72118359375000e+03 5.30331563949585e+00 1077 
8.50308593750000e+03 3.06823339843750e+03 4.06920480728149e+00 1080 
7.21126318359375e+03 3.75696850585938e+03 4.48379659652710e+00 1083 
7.32804345703125e+03 4.42739111328125e+03 5.51326608657837e+00 1087 
8.78599609375000e+03 4.80766601562500e+03 5.25994443893433e+00 1091 
7.51852294921875e+03 4.83655224609375e+03 4.61965274810791e+00 1092 
6.17188281250000e+03 4.81829394531250e+03 5.43427133560181e+00 1093 
6.92597607421875e+03 6.13675292968750e+03 3.81153202056885e+00 1096 
6.73004003906250e+03 1.53957092285156e+03 5.72121620178223e+00 1098 
8.12672558593750e+03 5.23352490234375e+03 6.10214042663574e+00 1103 
6.63458691406250e+03 6.60678369140625e+03 6.18742084503174e+00 1105 
8.65528808593750e+03 7.19509667968750e+03 6.80234050750732e+00 1106 
6.94758203125000e+03 9.55881152343750e+03 4.87773847579956e+00 1114 
5.18403564453125e+03 1.19777919921875e+04 6.07015657424927e+00 1116 
5.53777832031250e+03 1.24982109375000e+04 5.17670202255249e+00 1117 
6.47998632812500e+03 6.54534301757812e+02 4.77079534530640e+00 1120 
5.38136083984375e+03 8.45195007324219e+02 3.57422304153442e+00 1121 
5.74165478515625e+03 1.14467993164062e+03 4.30297946929932e+00 1122 
7.74806738281250e+03 1.77399890136719e+03 4.41717958450317e+00 1124 
8.68053320312500e+03 2.34142895507812e+03 4.66254711151123e+00 1127 
8.45662597656250e+03 3.16304418945312e+03 4.89977788925171e+00 1131 
6.51964208984375e+03 3.64435473632812e+03 4.42729854583740e+00 1137 
7.31858691406250e+03 4.54913574218750e+03 5.34364748001099e+00 1141 
8.60848535156250e+03 5.26680078125000e+03 3.63007044792175e+00 1145 
8.05690185546875e+03 5.58456835937500e+03 5.38845396041870e+00 1146 
8.46745117187500e+03 5.77019189453125e+03 4.85943651199341e+00 1147 
7.17237646484375e+03 6.24933300781250e+03 4.05205440521240e+00 1149 
5.15015478515625e+03 8.37567968750000e+03 4.15302085876465e+00 1160 
8.74857226562500e+03 8.97931152343750e+03 4.39442300796509e+00 1162 
8.24069042968750e+03 9.33125488281250e+03 3.88586163520813e+00 1166 
6.20470849609375e+03 1.04701240234375e+04 3.94354367256165e+00 1172 
8.61620214843750e+03 1.17324736328125e+04 5.89425277709961e+00 1180 
7.77528710937500e+03 1.17005000000000e+04 4.42210769653320e+00 1181 
5.18553906250000e+03 1.16071347656250e+04 4.92309856414795e+00 1183 
7.15841308593750e+03 1.19555742187500e+04 4.04024219512939e+00 1185 
6.63386621093750e+03 8.52206359863281e+02 6.70055198669434e+00 1195 
7.73233740234375e+03 1.75766687011719e+03 7.05009555816650e+00 1196 
5.44095068359375e+03 2.68572778320312e+03 6.09644508361816e+00 1198 
6.27747412109375e+03 3.19683081054688e+03 6.52358770370483e+00 1200 
8.50610644531250e+03 6.12207958984375e+03 6.03626823425293e+00 1204 
6.92853906250000e+03 6.10293212890625e+03 5.83129215240479e+00 1205 
6.09293408203125e+03 6.45449511718750e+03 5.68414735794067e+00 1207 
6.04002246093750e+03 6.58018603515625e+03 5.19274806976318e+00 1208 
8.74502050781250e+03 8.88987890625000e+03 6.40758752822876e+00 1214 
4.83574902343750e+03 1.09046767578125e+04 6.77349805831909e+00 1218 
6.03682421875000e+03 1.20077109375000e+04 7.42399787902832e+00 1220 
8.33875683593750e+03 1.24508408203125e+04 6.50798559188843e+00 1221 
5.40779541015625e+03 1.26603642578125e+04 6.03482198715210e+00 1223 
7.02888330078125e+03 5.03055957031250e+03 8.59521389007568e+00 1225 
5.38672070312500e+03 5.58609960937500e+03 9.21553325653076e+00 1226 
6.85011376953125e+03 5.77231982421875e+03 9.26891613006592e+00 1227 
7.53811181640625e+03 6.52264355468750e+03 1.03256330490112e+01 1229 
7.94858789062500e+03 8.76459960937500e+03 9.72481918334961e+00 1232 
7.69496142578125e+03 9.46450488281250e+03 1.13567104339600e+01 1234 
5.35577392578125e+03 1.06786933593750e+04 1.18743534088135e+01 1238 
7.02481494140625e+03 1.24610937500000e+04 6.54372644424438e+00 1240 
5.58215185546875e+03 3.99670605468750e+03 1.28247327804565e+01 1241 
7.02437402343750e+03 1.11325556640625e+04 4.10861253738403e+00 1242 
6.77620751953125e+03 1.30393310546875e+02 4.58387041091919e+00 1243 
7.13093603515625e+03 1.10207666015625e+04 7.34307575225830e+00 1244 
7.69713232421875e+03 1.06945390625000e+04 2.19711971282959e+01 1245 
6.49879101562500e+03 1.23011542968750e+04 2.13059043884277e+01 1246 
6.07143554687500e+03 1.10165878906250e+04 1.40913076400757e+01 1247 
8.65725390625000e+03 8.77458789062500e+03 8.30845928192139e+00 1248 
8.69083105468750e+03 8.77583203125000e+03 7.15108442306519e+00 1249 
6.91749316406250e+03 8.55782714843750e+03 3.46773719787598e+00 1250 
5.79171875000000e+03 9.49818750000000e+03 4.38312530517578e+00 1251 
5.33583007812500e+03 1.06161279296875e+04 3.94625759124756e+00 1252 
5.13866113281250e+03 1.19353994140625e+04 6.62341785430908e+00 1253 
8.31866601562500e+03 1.90209152221680e+02 4.97960090637207e+00 1254 
5.61161035156250e+03 2.34731982421875e+03 9.63696956634521e+00 1255 
5.14993750000000e+03 8.34846875000000e+03 7.21515083312988e+00 1256 
7.99694140625000e+03 9.15604199218750e+03 6.11509132385254e+00 1257 
5.52787695312500e+03 2.35918627929688e+03 9.56987380981445e+00 1258 
7.11234765625000e+03 4.54403417968750e+03 7.20308113098145e+00 1259 
7.45668261718750e+03 8.39708300781250e+03 8.07111167907715e+00 1260 
7.74134960937500e+03 9.29615429687500e+03 8.91366386413574e+00 1261 
6.76135546875000e+03 9.54152929687500e+03 1.93671932220459e+01 1262 
7.65501806640625e+03 9.60681250000000e+03 1.89167327880859e+01 1263 
7.81226464843750e+03 9.11958984375000e+03 1.41417942047119e+01 1264 
8.24924023437500e+03 1.00343007812500e+04 3.14468631744385e+01 1265 
5.93114306640625e+03 1.05660654296875e+04 4.20062522888184e+01 1266 
7.55010742187500e+03 3.09585620117188e+03 4.31149435043335e+00 1267 
7.90612011718750e+03 3.65718041992188e+03 3.80662107467651e+00 1268 
5.07835107421875e+03 9.05813671875000e+03 3.65294861793518e+00 1269 
7.97188232421875e+03 1.07192441406250e+04 3.85017371177673e+00 1270 
8.58255957031250e+03 1.50414062500000e+02 3.95778608322144e+00 1271 
7.97188427734375e+03 1.06969853515625e+04 6.12436914443970e+00 1272 
6.96262744140625e+03 7.95790722656250e+03 5.26704597473145e+00 1273 
6.21495458984375e+03 4.47446484375000e+03 8.98535633087158e+00 1274 
8.69129882812500e+03 7.21199804687500e+03 8.38826084136963e+00 1275 
6.24205322265625e+03 1.22896904296875e+04 8.76598930358887e+00 1324 
8.77858593750000e+03 1.07585224609375e+04 7.66033697128296e+00 1325 
4.37992041015625e+03 9.12495410156250e+03 1.18273277282715e+01 1326 
3.71406201171875e+03 1.01902167968750e+04 1.23423919677734e+01 1327 
4.58699853515625e+03 1.23626953125000e+04 1.36316919326782e+01 1328 
3.00841162109375e+03 1.21442031250000e+04 7.40144729614258e+00 1329 
5.95946972656250e+03 8.27269531250000e+03 1.38591833114624e+01 1330 
3.62733398437500e+03 1.01590166015625e+04 1.51331529617310e+01 1331 
7.13586132812500e+03 1.12409443359375e+04 1.85772399902344e+01 1332 
2.84774438476562e+03 1.14909121093750e+04 2.52931003570557e+01 1333 
3.05696313476562e+03 8.97004199218750e+03 2.30344829559326e+01 1334 
7.84958007812500e+03 1.19989511718750e+04 1.70624694824219e+01 1335 
4.16999560546875e+03 1.02578798828125e+04 1.83101100921631e+01 1336 
4.41686474609375e+03 1.00737783203125e+04 1.25480827331543e+02 1337 
2.89030664062500e+03 3.13476782226562e+03 3.86010122299194e+00 1338 
3.34688525390625e+03 4.35531347656250e+03 3.86807751655579e+00 1339 
3.29161108398438e+03 4.55213964843750e+03 5.40746355056763e+00 1340 
4.85058642578125e+03 4.63022412109375e+03 4.07720518112183e+00 1341 
7.52209716796875e+03 5.85947509765625e+03 5.14413166046143e+00 1342 
7.44940283203125e+03 8.41430566406250e+03 3.93159437179565e+00 1343 
3.80965063476562e+03 8.68667187500000e+03 4.59993839263916e+00 1344 
4.05655810546875e+03 9.71326269531250e+03 4.45389652252197e+00 1345 
4.55440039062500e+03 9.79300878906250e+03 3.68155074119568e+00 1346 
4.75123388671875e+03 9.82528027343750e+03 4.68140268325806e+00 1347 
3.63814648437500e+03 1.04100000000000e+04 4.42313718795776e+00 1348 
6.18330029296875e+03 1.09381738281250e+04 4.16259813308716e+00 1349 
2.59324829101562e+03 1.08999267578125e+04 3.94312167167664e+00 1350 
8.79055566406250e+03 1.31693334960938e+03 6.58443593978882e+00 1351 
3.34077563476562e+03 3.48489746093750e+03 4.85752391815186e+00 1352 
3.36396435546875e+03 8.04404174804688e+02 3.82264995574951e+00 1353 
3.61313769531250e+03 1.49809936523438e+03 3.61407279968262e+00 1354 
3.31352075195312e+03 5.15245458984375e+03 4.20792770385742e+00 1355 
4.12664697265625e+03 7.60032812500000e+03 3.69511818885803e+00 1356 
6.85600244140625e+03 9.95448046875000e+03 5.33278846740723e+00 1357 
5.77135351562500e+03 1.11246904296875e+04 4.02206277847290e+00 1358 
3.40446240234375e+03 1.13863076171875e+04 5.46162891387939e+00 1359 
6.63268017578125e+03 2.67515283203125e+03 6.12425279617310e+00 1360 
4.19138330078125e+03 9.57414941406250e+03 6.10191059112549e+00 1361 
8.66391113281250e+03 1.20324843750000e+04 6.62783002853394e+00 1362 
5.06694091796875e+03 4.52783569335938e+02 4.27867603302002e+00 1363 
7.80075048828125e+03 1.52013818359375e+03 5.03530168533325e+00 1364 
3.25354345703125e+03 2.06569458007812e+03 3.96383738517761e+00 1365 
7.85639746093750e+03 3.23390820312500e+03 4.43635034561157e+00 1366 
2.85328808593750e+03 9.31277441406250e+03 5.04293394088745e+00 1367 
3.69451586914062e+03 9.65744824218750e+03 4.38569688796997e+00 1368 
6.87404687500000e+03 9.75572558593750e+03 4.01363515853882e+00 1369 
4.65854589843750e+03 1.00593662109375e+04 3.79782605171204e+00 1370 
4.16563037109375e+03 1.01588125000000e+04 4.68113231658936e+00 1371 
3.40478857421875e+03 1.10000976562500e+04 3.75322890281677e+00 1372 
4.64448828125000e+03 1.11677910156250e+04 4.27671623229980e+00 1373 
4.93209326171875e+03 1.14657558593750e+04 4.90809106826782e+00 1374 
3.69665161132812e+03 1.16225429687500e+04 3.89218831062317e+00 1375 
2.90792797851562e+03 8.59524804687500e+03 5.57074499130249e+00 1376 
4.65528125000000e+03 1.24628076171875e+04 6.57730531692505e+00 1377 
7.78224511718750e+03 2.61564379882812e+03 3.72625803947449e+00 1378 
8.78605859375000e+03 5.52575585937500e+03 3.69231033325195e+00 1379 
8.73113769531250e+03 5.63924511718750e+03 3.83287096023560e+00 1380 
6.28933642578125e+03 9.72580664062500e+03 3.90026068687439e+00 1382 
3.63044213867188e+03 9.74018750000000e+03 3.90877103805542e+00 1383 
4.64169873046875e+03 9.87802343750000e+03 3.69465065002441e+00 1384 
5.20615380859375e+03 1.10240947265625e+04 5.47011566162109e+00 1385 
6.49409130859375e+03 1.12029267578125e+04 4.79607248306274e+00 1386 
4.03367016601562e+03 1.15020742187500e+04 3.86172699928284e+00 1387 
3.92045117187500e+03 1.22297158203125e+04 4.05387926101685e+00 1388 
7.76258789062500e+03 1.45562365722656e+03 5.99692869186401e+00 1389 
7.85405468750000e+03 4.66116650390625e+03 4.71288108825684e+00 1390 
3.33990185546875e+03 8.25323828125000e+03 5.62446928024292e+00 1391 
3.31088378906250e+03 6.72657666015625e+03 8.72290229797363e+00 1392 
5.30750781250000e+03 9.13760449218750e+03 8.35193347930908e+00 1393 
3.81871020507812e+03 8.89444726562500e+03 1.29284324645996e+01 1394 
2.79340917968750e+03 1.04432333984375e+04 1.27525682449341e+01 1395 
2.79983642578125e+03 8.76156054687500e+03 1.05316419601440e+01 1396 
3.57816284179688e+03 8.80977636718750e+03 8.28876113891602e+00 1397 
2.53679028320312e+03 8.90540039062500e+03 1.21312551498413e+01 1398 
3.66507666015625e+03 1.01642998046875e+04 1.04553384780884e+01 1399 
3.02183251953125e+03 1.27802880859375e+04 1.14119997024536e+01 1400 
8.53985351562500e+03 9.92867968750000e+03 1.40288867950439e+01 1402 
8.03630908203125e+03 1.00774052734375e+04 1.03498907089233e+01 1403 
3.76683422851562e+03 1.23882446289062e+02 1.08794813156128e+01 1404 
4.25800097656250e+03 2.67944610595703e+02 1.05343322753906e+01 1405 
2.67444897460938e+03 1.08929082031250e+04 7.11440563201904e+00 1406 
2.90545019531250e+03 1.17036064453125e+04 8.71086597442627e+00 1407 
4.38071777343750e+03 1.19467275390625e+04 8.80510234832764e+00 1408 
3.64661328125000e+03 1.01288369140625e+04 1.20048809051514e+01 1409 
7.78295849609375e+03 1.51042712402344e+03 9.80746269226074e+00 1410 
7.79649169921875e+03 2.90676806640625e+03 9.58240509033203e+00 1411 
3.97744555664062e+03 8.13058593750000e+03 9.10928726196289e+00 1412 
7.72153369140625e+03 9.36566210937500e+03 8.66810035705566e+00 1413 
3.49888159179688e+03 9.65741503906250e+03 1.12618961334229e+01 1414 
2.59377856445312e+03 1.08804521484375e+04 8.12588214874268e+00 1415 
2.47960107421875e+03 1.14532978515625e+04 9.14428806304932e+00 1416 
6.77930859375000e+03 1.22569111328125e+04 7.05853414535522e+00 1417 
2.61985205078125e+03 1.24714892578125e+04 9.55928707122803e+00 1418 
3.82954882812500e+03 1.25924960937500e+04 7.62531995773315e+00 1419 
7.92195410156250e+03 3.72897338867188e+02 1.61710319519043e+01 1420 
6.11901416015625e+03 1.96104626464844e+03 1.92880039215088e+01 1421 
3.33375122070312e+03 9.51133984375000e+03 2.25148086547852e+01 1422 
6.69472656250000e+03 9.36356640625000e+03 1.79156703948975e+01 1423 
2.70479467773438e+03 9.59543750000000e+03 1.44399881362915e+01 1424 
3.04830322265625e+03 9.58973242187500e+03 1.76628837585449e+01 1425 
7.77688964843750e+03 9.01902148437500e+03 1.41777973175049e+01 1426 
2.92040942382812e+03 1.14466728515625e+04 1.76150436401367e+01 1427 
2.74186791992188e+03 9.59600292968750e+03 2.91946926116943e+01 1428 
2.73907226562500e+03 9.59619140625000e+03 2.85980148315430e+01 1429 
3.69405371093750e+03 1.15972587890625e+04 3.04117622375488e+01 1430 
4.47541796875000e+03 1.13725302734375e+04 3.03526782989502e+01 1431 
4.15289697265625e+03 1.01034492187500e+04 7.74134674072266e+01 1432 
6.60396240234375e+03 1.01543505859375e+04 7.52824859619141e+01 1433 
8.28279882812500e+03 3.53067291259766e+02 4.49107646942139e+00 1434 
3.24316748046875e+03 5.39072814941406e+02 4.00250673294067e+00 1435 
6.54989990234375e+03 1.62429895019531e+03 6.15803003311157e+00 1436 
2.73855688476562e+03 1.89445031738281e+03 4.68840217590332e+00 1437 
7.73653466796875e+03 2.06242773437500e+03 4.79552459716797e+00 1438 
3.26579272460938e+03 2.45330737304688e+03 3.74177622795105e+00 1439 
3.85532885742188e+03 2.61367065429688e+03 4.02807521820068e+00 1440 
3.62247021484375e+03 2.67153808593750e+03 4.79712963104248e+00 1441 
5.03537792968750e+03 3.06257275390625e+03 3.58790373802185e+00 1442 
8.73442382812500e+03 3.46823242187500e+03 5.12714862823486e+00 1443 
3.75780786132812e+03 3.58899487304688e+03 4.72874307632446e+00 1444 
6.66468017578125e+03 3.67718286132812e+03 4.13013982772827e+00 1445 
3.34349096679688e+03 4.24215234375000e+03 3.67622447013855e+00 1446 
8.46551074218750e+03 4.51173974609375e+03 5.23460006713867e+00 1447 
4.21964501953125e+03 4.86016308593750e+03 4.59980869293213e+00 1448 
4.91629492187500e+03 5.49400537109375e+03 5.26916599273682e+00 1449 
4.68346533203125e+03 5.50215771484375e+03 5.86592149734497e+00 1450 
4.73764160156250e+03 5.52086962890625e+03 5.49906635284424e+00 1451 
5.00913867187500e+03 5.54489794921875e+03 5.29243707656860e+00 1452 
4.10554589843750e+03 7.08491552734375e+03 4.02754306793213e+00 1453 
3.33280151367188e+03 8.22638476562500e+03 4.05705451965332e+00 1454 
5.91910253906250e+03 9.52967187500000e+03 4.32467508316040e+00 1455 
3.63076757812500e+03 1.03943701171875e+04 5.20003080368042e+00 1456 
2.72174169921875e+03 1.03978574218750e+04 4.07261657714844e+00 1457 
2.48253784179688e+03 1.08730556640625e+04 4.68138599395752e+00 1458 
3.87279565429688e+03 1.11367968750000e+04 4.14617061614990e+00 1459 
4.02576562500000e+03 1.13880820312500e+04 3.91271781921387e+00 1460 
7.99567041015625e+03 1.17097177734375e+04 5.62173795700073e+00 1461 
3.92982983398438e+03 1.21400488281250e+04 5.75690031051636e+00 1462 
7.59620751953125e+03 1.24108056640625e+04 4.41315889358521e+00 1463 
7.00106005859375e+03 1.24552490234375e+04 4.36955785751343e+00 1464 
2.44967700195312e+03 1.24622880859375e+04 5.60083532333374e+00 1465 
2.47875000000000e+03 1.24619550781250e+04 5.55503511428833e+00 1466 
3.27992260742188e+03 1.25893730468750e+04 4.06353282928467e+00 1467 
4.57710205078125e+03 1.28380751953125e+04 4.89529705047607e+00 1468 
3.65255273437500e+03 1.29417763671875e+04 5.25821638107300e+00 1469 
4.13637988281250e+03 2.69498718261719e+02 6.06239318847656e+00 1470 
2.57024780273438e+03 7.78775976562500e+03 6.13945055007935e+00 1471 
4.26137548828125e+03 8.40047167968750e+03 6.44916391372681e+00 1472 
4.79935058593750e+03 8.48096191406250e+03 6.71599435806274e+00 1473 
3.26873437500000e+03 9.38043554687500e+03 6.54038810729980e+00 1475 
2.68229174804688e+03 9.59812695312500e+03 6.80602693557739e+00 1476 
4.10251416015625e+03 1.03960927734375e+04 6.41630172729492e+00 1477 
7.68466406250000e+03 1.07847617187500e+04 7.39222621917725e+00 1478 
2.95769067382812e+03 1.21856503906250e+04 5.97590160369873e+00 1479 
3.64283203125000e+03 1.28346347656250e+04 6.96757841110229e+00 1480 
5.12533789062500e+03 1.76502136230469e+02 4.62048196792603e+00 1481 
4.60504541015625e+03 4.45562286376953e+02 4.07017230987549e+00 1482 
2.78985986328125e+03 4.23213348388672e+02 5.30674982070923e+00 1483 
4.48869970703125e+03 4.90996551513672e+02 3.69093370437622e+00 1484 
3.63834570312500e+03 1.45305407714844e+03 3.88734722137451e+00 1485 
4.97045117187500e+03 2.09440209960938e+03 5.39331340789795e+00 1486 
5.25047070312500e+03 2.68480346679688e+03 3.82561683654785e+00 1487 
5.30097656250000e+03 2.76670581054688e+03 3.76691675186157e+00 1488 
2.89948828125000e+03 2.77653198242188e+03 4.39128351211548e+00 1489 
4.06329760742188e+03 3.44175219726562e+03 4.74422502517700e+00 1490 
3.48935034179688e+03 3.71267895507812e+03 3.93184423446655e+00 1491 
4.85954150390625e+03 3.94358984375000e+03 5.26037836074829e+00 1492 
4.04478955078125e+03 5.42260351562500e+03 5.37459754943848e+00 1493 
4.42371142578125e+03 5.46511914062500e+03 4.34549903869629e+00 1494 
4.99683251953125e+03 5.58066894531250e+03 5.16069555282593e+00 1495 
4.11717626953125e+03 6.61920800781250e+03 4.34325170516968e+00 1496 
4.21364111328125e+03 7.29687304687500e+03 5.70387983322144e+00 1497 
3.30356079101562e+03 7.36792138671875e+03 4.59075069427490e+00 1498 
2.99466015625000e+03 7.47130322265625e+03 5.27938413619995e+00 1499 
4.52097216796875e+03 8.44748339843750e+03 5.11229896545410e+00 1500 
4.80256884765625e+03 8.45518945312500e+03 4.91049194335938e+00 1501 
2.60634106445312e+03 1.02421904296875e+04 4.72474479675293e+00 1502 
5.74523388671875e+03 1.03513232421875e+04 3.84891557693481e+00 1503 
3.13520117187500e+03 1.05481279296875e+04 4.11850595474243e+00 1504 
2.42911791992188e+03 1.08636660156250e+04 4.95523834228516e+00 1505 
4.09215722656250e+03 1.09734765625000e+04 5.56068229675293e+00 1506 
3.85860302734375e+03 1.10680820312500e+04 5.16322374343872e+00 1507 
7.02688867187500e+03 1.14978017578125e+04 3.87213659286499e+00 1508 
4.36342578125000e+03 1.19495029296875e+04 3.97113776206970e+00 1509 
3.20612011718750e+03 5.81891296386719e+02 6.27763843536377e+00 1510 
4.58346386718750e+03 1.69909729003906e+03 6.55857419967651e+00 1511 
2.75232617187500e+03 3.96695971679688e+03 6.11387920379639e+00 1512 
7.88721582031250e+03 4.62019433593750e+03 5.44690895080566e+00 1513 
4.68486035156250e+03 5.34127929687500e+03 6.47279071807861e+00 1514 
2.66966430664062e+03 7.93542968750000e+03 5.76399469375610e+00 1515 
5.62673095703125e+03 9.92262500000000e+03 6.84281492233276e+00 1516 
2.82814916992188e+03 9.93627929687500e+03 6.66665458679199e+00 1517 
8.39843164062500e+03 1.10883408203125e+04 6.25213813781738e+00 1518 
3.97237207031250e+03 1.09773007812500e+04 6.06196212768555e+00 1519 
3.97244116210938e+03 1.10066044921875e+04 6.68047523498535e+00 1520 
3.41866015625000e+03 1.10026406250000e+04 6.37510681152344e+00 1521 
3.36817065429688e+03 1.10755644531250e+04 5.67565870285034e+00 1522 
3.17163842773438e+03 1.25918691406250e+04 6.06134176254272e+00 1523 
3.98016748046875e+03 1.26161445312500e+04 6.01618576049805e+00 1524 
2.78042944335938e+03 1.28555986328125e+04 5.64739370346069e+00 1525 
3.64833886718750e+03 5.69576599121094e+02 5.73704242706299e+00 1526 
3.93267675781250e+03 7.23249755859375e+02 5.13280963897705e+00 1527 
3.82426928710938e+03 8.86877136230469e+02 3.67569065093994e+00 1528 
3.51155859375000e+03 1.81683996582031e+03 5.61350440979004e+00 1529 
3.50800634765625e+03 2.16977587890625e+03 3.52576255798340e+00 1530 
7.98019873046875e+03 2.46291967773438e+03 3.89221572875977e+00 1531 
3.37234472656250e+03 3.11324511718750e+03 4.93220424652100e+00 1532 
3.59172094726562e+03 3.16634472656250e+03 4.66767501831055e+00 1533 
5.76171679687500e+03 3.38464306640625e+03 5.46836900711060e+00 1534 
3.89000341796875e+03 3.52650122070312e+03 4.74883794784546e+00 1535 
3.74058862304688e+03 3.60086572265625e+03 4.57131385803223e+00 1536 
4.79237988281250e+03 3.82649316406250e+03 5.03370046615601e+00 1537 
2.69303686523438e+03 3.91372314453125e+03 4.63515996932983e+00 1538 
4.21524804687500e+03 4.37005029296875e+03 5.41292762756348e+00 1539 
4.73640820312500e+03 4.71481835937500e+03 5.08109998703003e+00 1540 
4.71138623046875e+03 5.51209033203125e+03 5.86910390853882e+00 1541 
5.20199414062500e+03 6.07142382812500e+03 5.20301342010498e+00 1542 
4.41505908203125e+03 6.13852050781250e+03 5.26921415328979e+00 1543 
4.25564648437500e+03 6.88491845703125e+03 5.48420810699463e+00 1544 
3.79251318359375e+03 7.09825439453125e+03 3.71605443954468e+00 1545 
4.76394628906250e+03 7.29360351562500e+03 4.08348751068115e+00 1546 
3.12016357421875e+03 8.27829589843750e+03 3.75724077224731e+00 1547 
3.13224389648438e+03 8.31397070312500e+03 5.39046144485474e+00 1548 
4.77270751953125e+03 8.40920214843750e+03 4.89338493347168e+00 1549 
8.76677832031250e+03 8.78755273437500e+03 5.00665235519409e+00 1550 
5.33334716796875e+03 1.00137148437500e+04 3.60245180130005e+00 1551 
3.50869140625000e+03 1.01082236328125e+04 5.22685480117798e+00 1552 
2.73096337890625e+03 1.03456855468750e+04 4.45868682861328e+00 1553 
2.57766455078125e+03 1.04067187500000e+04 5.22515296936035e+00 1554 
2.64354858398438e+03 1.08975400390625e+04 4.74701595306396e+00 1555 
2.07837426757812e+03 1.12036630859375e+04 4.40264558792114e+00 1556 
8.36957421875000e+03 1.24545048828125e+04 3.55909967422485e+00 1557 
4.09642187500000e+03 1.50168426513672e+02 6.71028041839600e+00 1558 
2.69399487304688e+03 4.63263720703125e+03 6.51466083526611e+00 1559 
2.80208325195312e+03 4.68185742187500e+03 5.84104681015015e+00 1560 
2.90264379882812e+03 5.44893066406250e+03 6.16094064712524e+00 1561 
8.68299902343750e+03 5.71885009765625e+03 6.97444486618042e+00 1562 
4.20926562500000e+03 6.09646582031250e+03 6.75304841995239e+00 1563 
4.22400537109375e+03 6.87682519531250e+03 6.46692609786987e+00 1564 
2.78620043945312e+03 7.94329931640625e+03 6.72802639007568e+00 1565 
2.72704687500000e+03 7.95762304687500e+03 5.68695068359375e+00 1566 
4.61931445312500e+03 8.40181738281250e+03 5.58238554000854e+00 1567 
4.74332861328125e+03 8.47093750000000e+03 6.49926185607910e+00 1568 
4.00715795898438e+03 8.62637988281250e+03 5.83942270278931e+00 1569 
3.00328393554688e+03 9.96403320312500e+03 6.74390172958374e+00 1570 
2.56188012695312e+03 1.24805224609375e+04 6.26021003723145e+00 1571 
3.89674877929688e+03 1.25994941406250e+04 6.03533554077148e+00 1572 
2.51933544921875e+03 1.25949140625000e+04 6.90055561065674e+00 1573 
4.82720019531250e+03 9.30297729492188e+02 3.75792050361633e+00 1574 
4.59335742187500e+03 1.02113336181641e+03 4.30741167068481e+00 1575 
