ply
format ascii 1.0
element vertex 704
property double x
property double y
property double size
property short id
end_header
2.44595654296875e+03 7.86505273437500e+03 4.19037723541260e+00 20 
2.29112207031250e+03 7.34086767578125e+03 4.71791648864746e+00 21 
4.04509643554688e+03 7.29211474609375e+03 4.38627195358276e+00 22 
6.74717834472656e+02 4.88500244140625e+03 3.75014185905457e+00 23 
1.48089782714844e+03 3.64703369140625e+03 4.97842931747437e+00 24 
5.09397314453125e+03 1.80366101074219e+03 3.76937055587769e+00 25 
1.20798477172852e+02 1.76523864746094e+03 6.23614501953125e+00 26 
4.43496459960938e+02 7.08289746093750e+03 4.04350376129150e+00 27 
1.74350585937500e+03 6.52971191406250e+03 4.23168754577637e+00 28 
4.96511816406250e+03 3.06814721679688e+03 3.77753782272339e+00 29 
6.30241943359375e+03 1.75409802246094e+03 3.77169370651245e+00 30 
2.25609985351562e+03 1.16809936523438e+03 7.46258640289307e+00 31 
2.45459252929688e+03 7.84278564453125e+03 4.91045475006104e+00 32 
2.28518945312500e+03 7.35624462890625e+03 3.83899807929993e+00 33 
5.92817480468750e+03 7.19629785156250e+03 4.75349760055542e+00 34 
4.83220996093750e+03 7.07443750000000e+03 4.57091665267944e+00 35 
7.47629272460938e+02 2.95771044921875e+03 3.96757555007935e+00 36 
3.85904345703125e+03 8.36845605468750e+03 5.57508802413940e+00 37 
2.16284423828125e+03 7.38874658203125e+03 6.04735422134399e+00 38 
2.89091357421875e+03 2.90458831787109e+02 3.70491433143616e+00 39 
3.47142797851562e+03 6.05399414062500e+03 5.86663293838501e+00 40 
3.20241210937500e+03 6.73894921875000e+03 4.19278001785278e+00 41 
6.23231347656250e+03 3.27638031005859e+02 3.75523614883423e+00 42 
1.00921148681641e+03 6.87561572265625e+03 7.22001504898071e+00 43 
6.70117492675781e+02 2.22852734375000e+03 7.55852365493774e+00 44 
2.86829687500000e+03 1.66531384277344e+03 9.70011806488037e+00 45 
4.17434033203125e+03 1.32918017578125e+03 8.13903141021729e+00 46 
3.75920629882812e+03 6.23515319824219e+02 1.09215965270996e+01 47 
3.23918750000000e+03 8.54921508789062e+02 9.02018070220947e+00 48 
2.06152172851562e+03 3.40057098388672e+02 8.32529640197754e+00 49 
4.87673388671875e+03 3.58769989013672e+02 7.50405311584473e+00 50 
1.46824853515625e+03 1.78801184082031e+03 1.22102451324463e+01 51 
3.19780761718750e+03 7.15569775390625e+03 7.22251224517822e+00 52 
1.83198693847656e+03 5.51413085937500e+03 8.46334648132324e+00 53 
4.91666931152344e+02 4.84439062500000e+03 8.27479076385498e+00 54 
9.99018310546875e+02 4.80959667968750e+03 8.30914020538330e+00 55 
4.97162695312500e+03 4.72709863281250e+03 8.54938888549805e+00 56 
4.17362060546875e+03 1.15890148925781e+03 9.14394187927246e+00 57 
5.72164697265625e+03 6.20355468750000e+03 7.23935699462891e+00 58 
5.74324804687500e+03 6.17812011718750e+03 8.89860630035400e+00 59 
1.26981115722656e+03 5.80093750000000e+03 7.95191526412964e+00 60 
2.63938183593750e+03 4.97553466796875e+03 7.47264289855957e+00 61 
5.06156005859375e+03 4.34430957031250e+03 7.25855779647827e+00 62 
9.10236968994141e+01 4.08728540039062e+03 7.68687820434570e+00 63 
3.06776904296875e+03 3.05566894531250e+03 1.02201967239380e+01 64 
4.11711962890625e+03 1.40995373535156e+03 1.02935905456543e+01 65 
3.70475927734375e+03 5.53419860839844e+02 1.09482984542847e+01 66 
1.95929663085938e+03 2.27229721069336e+02 8.00919818878174e+00 67 
5.74173681640625e+03 1.24059257507324e+02 7.24187183380127e+00 68 
4.29973236083984e+02 5.39491943359375e+02 1.29098024368286e+01 69 
2.10088452148438e+03 8.07323339843750e+03 1.35542182922363e+01 70 
3.59943554687500e+03 2.05220605468750e+03 2.48638534545898e+01 71 
3.17212500000000e+03 1.78054980468750e+03 2.49293518066406e+01 72 
2.05671533203125e+03 1.03575463867188e+03 2.62197990417480e+01 73 
1.23904748535156e+03 7.42393212890625e+03 2.44773445129395e+01 74 
3.11674658203125e+03 2.88254077148438e+03 2.67520503997803e+01 75 
1.96434899902344e+03 2.22710156250000e+03 2.19781684875488e+01 77 
2.89922631835938e+03 1.69480651855469e+03 1.54033432006836e+01 78 
2.12530297851562e+03 1.08119982910156e+03 2.28929252624512e+01 79 
7.93935791015625e+02 1.50585607910156e+03 2.17602710723877e+01 80 
1.86794750976562e+03 6.53793603515625e+03 4.45628967285156e+01 81 
5.22475830078125e+03 5.75437792968750e+03 1.01012916564941e+02 82 
2.08067602539062e+03 8.03441259765625e+03 4.78471660614014e+00 83 
2.95120263671875e+03 7.41023583984375e+03 5.32075214385986e+00 84 
2.75605102539062e+03 7.25594580078125e+03 5.41050243377686e+00 85 
1.26379467773438e+03 6.28858837890625e+03 5.06461381912231e+00 86 
3.47394213867188e+03 6.03575097656250e+03 5.48406171798706e+00 87 
1.32263867187500e+03 5.66895068359375e+03 4.92078495025635e+00 88 
1.49194433593750e+03 3.65140405273438e+03 4.04883384704590e+00 90 
1.97369140625000e+03 2.47116259765625e+03 5.32610464096069e+00 91 
2.46245605468750e+03 1.99341467285156e+03 4.79932880401611e+00 92 
2.04960205078125e+03 1.95552627563477e+02 4.54316806793213e+00 93 
5.88815536499023e+01 7.86830810546875e+03 6.56410980224609e+00 94 
2.26511254882812e+03 7.95806054687500e+03 5.65994596481323e+00 95 
9.28882217407227e+01 6.28542236328125e+03 6.75842809677124e+00 96 
1.03923547363281e+03 6.24785351562500e+03 6.54693794250488e+00 97 
1.29328063964844e+03 5.80515771484375e+03 7.19685125350952e+00 98 
2.48617089843750e+03 5.37500341796875e+03 6.66622734069824e+00 99 
3.73355517578125e+03 5.35421289062500e+03 6.62007284164429e+00 100 
8.76965087890625e+02 4.92446923828125e+03 6.83259296417236e+00 101 
2.23105810546875e+03 4.46280175781250e+03 6.28416728973389e+00 102 
5.75164978027344e+02 3.98182617187500e+03 5.55056810379028e+00 103 
2.57278466796875e+03 3.62898999023438e+03 7.04123830795288e+00 104 
1.95128295898438e+03 2.65098852539062e+03 5.87512207031250e+00 105 
4.93539501953125e+03 1.55654174804688e+03 7.12404251098633e+00 106 
2.17822900390625e+03 4.10053375244141e+02 6.54271316528320e+00 107 
3.03348413085938e+03 7.98624755859375e+03 4.35412883758545e+00 108 
6.37270874023438e+02 7.31994384765625e+03 3.89074206352234e+00 109 
7.76357421875000e+02 6.89529345703125e+03 5.66120815277100e+00 110 
1.26553962707520e+02 6.17518261718750e+03 5.89285993576050e+00 111 
5.07985290527344e+02 6.05912109375000e+03 5.27993679046631e+00 112 
2.80669482421875e+03 5.73763330078125e+03 3.83862304687500e+00 113 
7.51406921386719e+02 4.91313476562500e+03 4.43296289443970e+00 114 
7.18147277832031e+02 4.91247656250000e+03 5.76008510589600e+00 115 
6.75041198730469e+02 4.89803076171875e+03 5.51761865615845e+00 116 
3.39358715820312e+03 4.01622290039062e+03 4.37789392471313e+00 117 
9.54846801757812e+02 3.55868750000000e+03 4.60940074920654e+00 118 
1.86384143066406e+03 3.27403759765625e+03 5.87472248077393e+00 119 
2.56534326171875e+03 3.28932299804688e+03 4.25624752044678e+00 120 
4.24821142578125e+03 2.95872875976562e+03 3.98760223388672e+00 121 
2.07363378906250e+03 2.55841601562500e+03 4.16144943237305e+00 122 
2.94804223632812e+03 1.74066162109375e+03 3.77840161323547e+00 123 
3.31063476562500e+03 4.61670556640625e+03 6.47982883453369e+00 124 
2.49010400390625e+03 3.19627270507812e+03 6.25178003311157e+00 125 
6.61682983398438e+02 2.20120092773438e+03 5.73679256439209e+00 126 
1.88887353515625e+03 1.96947302246094e+03 7.02738618850708e+00 127 
4.04671411132812e+03 3.50643310546875e+02 6.72808074951172e+00 128 
8.30689880371094e+02 7.25670117187500e+03 3.84962368011475e+00 129 
3.17502783203125e+03 7.31936376953125e+03 6.00473594665527e+00 130 
5.68694531250000e+03 6.71743115234375e+03 3.47769355773926e+00 131 
1.21148193359375e+03 6.27755712890625e+03 5.24262952804565e+00 132 
1.08122998046875e+03 6.27225341796875e+03 5.93951463699341e+00 133 
1.88701611328125e+03 6.06476904296875e+03 5.56518363952637e+00 134 
5.81565527343750e+03 6.03340039062500e+03 4.18994760513306e+00 135 
1.10866101074219e+03 4.80157275390625e+03 5.54088020324707e+00 136 
1.50353149414062e+03 4.57673046875000e+03 3.48216938972473e+00 137 
3.31309375000000e+03 4.13087890625000e+03 3.99139404296875e+00 138 
3.77517504882812e+03 3.12875805664062e+03 4.02419853210449e+00 139 
4.21594384765625e+03 2.89080102539062e+03 3.92879724502563e+00 140 
4.04240966796875e+03 2.86636547851562e+03 3.81430768966675e+00 141 
1.38444250488281e+03 2.06712744140625e+03 5.72112417221069e+00 142 
4.98905468750000e+03 1.55314147949219e+03 5.26845979690552e+00 143 
2.16000488281250e+03 1.07580480957031e+03 3.79433870315552e+00 144 
6.86703430175781e+02 9.36176757812500e+02 4.31704854965210e+00 145 
9.79241882324219e+02 5.44956726074219e+02 5.39032840728760e+00 146 
1.43065039062500e+03 1.15251983642578e+02 5.21529436111450e+00 147 
2.73145947265625e+03 7.99421289062500e+03 5.62327909469604e+00 148 
5.11186523437500e+03 7.72940771484375e+03 6.45859575271606e+00 149 
2.44066772460938e+02 6.99210156250000e+03 6.56614351272583e+00 150 
1.62027526855469e+03 7.04738818359375e+03 4.78117799758911e+00 151 
1.00670538330078e+03 6.87448583984375e+03 6.40178680419922e+00 152 
5.53527832031250e+03 6.61116308593750e+03 5.77623748779297e+00 153 
1.25904589843750e+03 6.31055615234375e+03 6.28009653091431e+00 154 
3.45883300781250e+03 6.06112939453125e+03 6.68481206893921e+00 155 
3.78361010742188e+03 5.22358691406250e+03 6.49663686752319e+00 156 
2.23171923828125e+03 4.40334375000000e+03 6.70115089416504e+00 157 
9.32099853515625e+02 3.55062768554688e+03 5.78256082534790e+00 158 
2.56056689453125e+03 3.58158422851562e+03 6.59465026855469e+00 159 
1.86637805175781e+03 3.24836254882812e+03 6.83119058609009e+00 160 
6.26283984375000e+03 3.38401953125000e+03 6.07968711853027e+00 161 
4.52994140625000e+03 1.98213659667969e+03 6.66056966781616e+00 162 
5.14791162109375e+03 1.91283166503906e+03 6.63739633560181e+00 163 
4.70918505859375e+03 1.32923632812500e+03 6.81222009658813e+00 164 
2.11416308593750e+03 3.67540771484375e+02 6.70627117156982e+00 165 
1.41569104003906e+03 4.92873095703125e+03 1.03308296203613e+01 166 
2.10520068359375e+03 3.92990283203125e+03 9.57643795013428e+00 167 
1.54927954101562e+03 1.67903784179688e+03 6.95194959640503e+00 168 
6.32180712890625e+03 1.75474096679688e+03 9.01262283325195e+00 169 
1.94807360839844e+03 2.65957855224609e+02 8.38627719879150e+00 170 
5.19609191894531e+02 4.17569628906250e+03 1.34253330230713e+01 171 
4.06394873046875e+03 3.34767944335938e+02 5.66191768646240e+00 172 
1.05220178222656e+03 6.46647851562500e+03 6.03704929351807e+00 173 
2.52849487304688e+03 6.42215283203125e+03 6.78443384170532e+00 174 
3.05423291015625e+03 5.02400244140625e+03 6.36784648895264e+00 175 
9.39535400390625e+02 4.94444482421875e+03 6.17035388946533e+00 176 
8.47914978027344e+02 4.91944921875000e+03 6.59775352478027e+00 177 
2.23358764648438e+03 4.34201562500000e+03 6.13543558120728e+00 178 
2.06195629882812e+03 3.96085693359375e+03 7.50257539749146e+00 179 
2.25157153320312e+03 3.98017065429688e+03 6.40579175949097e+00 180 
6.17216857910156e+02 3.72527368164062e+03 6.65953302383423e+00 181 
7.47865173339844e+02 2.94102783203125e+03 6.89619779586792e+00 182 
6.28196142578125e+03 2.52998672485352e+02 7.26377582550049e+00 183 
2.76306335449219e+02 8.15370556640625e+03 3.85401678085327e+00 184 
3.10373095703125e+03 8.09366210937500e+03 4.64404106140137e+00 185 
2.36733129882812e+03 7.99827783203125e+03 5.66981792449951e+00 186 
3.69315948486328e+02 7.78781542968750e+03 5.99956321716309e+00 187 
4.77549255371094e+02 7.08715820312500e+03 4.53990364074707e+00 188 
1.60189147949219e+03 7.09853759765625e+03 4.23123931884766e+00 189 
1.44735595703125e+03 6.96754687500000e+03 4.79877042770386e+00 190 
5.29189501953125e+03 6.83879492187500e+03 4.44735813140869e+00 191 
2.51095410156250e+03 6.43903857421875e+03 5.33554124832153e+00 192 
1.11726098632812e+03 6.24665283203125e+03 4.20301532745361e+00 193 
1.20407066345215e+02 6.20090820312500e+03 5.39757585525513e+00 194 
1.04566650390625e+03 6.22530322265625e+03 4.53007841110229e+00 195 
4.63956817626953e+02 5.13618505859375e+03 4.69084262847900e+00 196 
7.17260131835938e+01 4.49253662109375e+03 5.76957654953003e+00 197 
3.37781787109375e+03 4.02813671875000e+03 4.46810436248779e+00 198 
2.25089501953125e+03 4.00410058593750e+03 5.48386669158936e+00 199 
5.58013476562500e+03 3.86759643554688e+03 4.43213129043579e+00 200 
1.02267877197266e+03 3.56671557617188e+03 4.79502296447754e+00 201 
7.51602844238281e+02 2.96731494140625e+03 4.68200874328613e+00 202 
1.93712493896484e+02 2.03739929199219e+03 3.74987626075745e+00 203 
9.39458862304688e+02 2.01869970703125e+03 5.05762767791748e+00 204 
5.12550146484375e+03 1.90644982910156e+03 4.51855230331421e+00 205 
4.97825195312500e+03 1.58293103027344e+03 5.33063316345215e+00 206 
9.70324035644531e+02 5.83290954589844e+02 5.08288764953613e+00 207 
6.22179101562500e+03 3.29829589843750e+02 3.79086685180664e+00 208 
2.79908618164062e+03 5.81710791015625e+03 6.52401924133301e+00 209 
4.78713085937500e+03 2.95208422851562e+03 8.06649875640869e+00 211 
4.64831933593750e+03 6.16092138671875e+03 1.73660182952881e+01 213 
5.43536669921875e+03 3.15422167968750e+03 6.47893371582031e+01 217 
6.05815283203125e+03 2.80763610839844e+02 3.79322481155396e+00 225 
8.75337036132812e+02 4.93988623046875e+03 3.85877799987793e+00 228 
2.46739038085938e+03 1.38383850097656e+03 6.63745784759521e+00 253 
2.43186938476562e+03 1.36032580566406e+03 6.71330785751343e+00 254 
2.97544464111328e+02 5.32176696777344e+02 1.27491636276245e+01 258 
1.47856860351562e+03 8.02931152343750e+03 7.31516170501709e+00 259 
2.10139965820312e+03 3.97139306640625e+03 9.02785110473633e+00 262 
5.14617736816406e+02 2.30823681640625e+03 1.04483976364136e+01 272 
4.08593090820312e+03 1.45428540039062e+03 1.04020709991455e+01 273 
5.13339404296875e+03 7.96447460937500e+03 2.25918102264404e+01 275 
3.93173583984375e+03 5.85046875000000e+03 2.31592655181885e+01 279 
2.15023559570312e+03 4.46680908203125e+03 1.60885486602783e+01 281 
3.04339160156250e+03 3.16451928710938e+03 4.60799980163574e+01 285 
3.17133984375000e+03 7.15652832031250e+03 3.84275674819946e+00 289 
4.96856738281250e+03 7.07283642578125e+03 4.55942821502686e+00 291 
5.74843652343750e+03 5.74045654296875e+03 4.87893438339233e+00 293 
1.22201904296875e+02 4.61960058593750e+03 4.16426372528076e+00 297 
4.03140429687500e+03 4.13284521484375e+03 4.66656875610352e+00 298 
4.86098388671875e+03 7.96229052734375e+03 6.21431779861450e+00 307 
4.91786132812500e+02 4.36453076171875e+03 5.54152774810791e+00 312 
5.86078417968750e+03 7.55930957031250e+03 4.11052560806274e+00 320 
2.72739038085938e+03 7.22814501953125e+03 5.81279897689819e+00 324 
5.84666015625000e+02 4.83783056640625e+03 5.78456926345825e+00 330 
1.79019946289062e+03 2.92179589843750e+03 4.23091602325439e+00 333 
3.46202880859375e+03 2.44719531250000e+03 5.36315965652466e+00 335 
1.43797399902344e+03 2.06389697265625e+03 5.75413942337036e+00 337 
2.44114013671875e+03 8.17233593750000e+03 4.53520107269287e+00 346 
5.08119433593750e+03 7.55849365234375e+03 4.86763525009155e+00 351 
5.11047943115234e+02 6.12445898437500e+03 5.45517110824585e+00 356 
7.11192993164062e+02 4.78137304687500e+03 5.68449163436890e+00 359 
9.62271728515625e+02 6.08432983398438e+02 5.42554235458374e+00 370 
5.99797460937500e+03 8.12625671386719e+02 4.34738349914551e+00 395 
4.02430224609375e+03 3.18949035644531e+02 4.15792036056519e+00 396 
3.12984228515625e+03 6.95022265625000e+03 6.26692867279053e+00 399 
3.90967944335938e+03 4.88393945312500e+03 6.83485174179077e+00 404 
5.04862402343750e+03 4.37029199218750e+03 7.03072547912598e+00 405 
3.00689233398438e+03 8.05562500000000e+03 4.36124753952026e+00 409 
5.09234161376953e+02 7.10953369140625e+03 5.35657024383545e+00 413 
3.12667626953125e+03 5.57987939453125e+03 5.50589942932129e+00 421 
6.97538452148438e+02 5.04584564208984e+02 4.46832275390625e+00 434 
2.24741027832031e+02 6.79522070312500e+03 6.85358858108521e+00 444 
2.02308703613281e+03 6.09378662109375e+03 6.65674257278442e+00 448 
2.25206396484375e+03 7.46534228515625e+03 4.28715209960938e+01 462 
1.49378295898438e+03 1.64565933227539e+02 3.77892708778381e+00 465 
2.47974926757812e+03 5.39761865234375e+03 5.41963958740234e+00 497 
3.06330859375000e+03 4.98540625000000e+03 5.18712139129639e+00 498 
5.93388862609863e+01 3.95834082031250e+03 5.74230337142944e+00 499 
3.43029833984375e+03 7.29270703125000e+03 6.20571136474609e+00 506 
3.40604522705078e+02 7.78047070312500e+03 5.55940389633179e+00 513 
3.97327270507812e+02 5.51223486328125e+03 5.07958078384399e+00 515 
8.44051757812500e+02 4.94380273437500e+03 4.90098857879639e+00 526 
1.94769946289062e+03 4.61938964843750e+03 7.55299091339111e+00 535 
2.63009960937500e+03 5.00191503906250e+03 6.35921669006348e+00 546 
2.89641894531250e+03 6.31810742187500e+03 5.11955928802490e+00 549 
2.46333422851562e+03 5.25832373046875e+03 5.45458507537842e+00 551 
2.42672753906250e+03 7.37552978515625e+03 4.31166315078735e+00 567 
4.17249694824219e+02 7.07031201171875e+03 4.06925868988037e+00 570 
1.55262329101562e+03 7.83727685546875e+03 3.91016983985901e+00 571 
6.92306823730469e+02 8.12008837890625e+03 4.15824127197266e+00 572 
2.06153295898438e+03 1.01488164062500e+04 5.59734964370728e+00 573 
1.39134277343750e+03 1.04049892578125e+04 5.31314897537231e+00 574 
3.83872509765625e+03 1.05612656250000e+04 3.92106795310974e+00 575 
1.52773513793945e+02 1.09265009765625e+04 4.12510108947754e+00 576 
3.41219848632812e+03 1.12308984375000e+04 4.99380254745483e+00 577 
4.78425048828125e+03 1.18788037109375e+04 3.70224809646606e+00 578 
1.61278320312500e+03 3.07013232421875e+03 5.94546985626221e+00 579 
5.63670410156250e+03 3.10937744140625e+03 6.55287599563599e+00 580 
6.00074169921875e+03 5.12165673828125e+03 5.84257650375366e+00 581 
1.25857495117188e+03 5.64207128906250e+03 6.40189552307129e+00 582 
3.48369335937500e+03 8.63213769531250e+03 5.99546909332275e+00 583 
1.41783227539062e+03 1.44227310180664e+02 4.75211763381958e+00 584 
6.05778613281250e+03 9.89356628417969e+02 4.00062036514282e+00 585 
3.27646386718750e+03 1.05721447753906e+03 4.83154153823853e+00 586 
6.05684082031250e+03 2.87322045898438e+03 4.01717233657837e+00 587 
7.52046203613281e+02 2.89089916992188e+03 3.80290269851685e+00 588 
4.93259277343750e+03 5.71707568359375e+03 4.93165826797485e+00 589 
2.13064184570312e+03 7.73475683593750e+03 4.57661199569702e+00 590 
5.94708618164062e+02 8.44833007812500e+03 4.36037731170654e+00 591 
1.84841333007812e+03 1.01370927734375e+04 5.11711311340332e+00 592 
5.23898828125000e+03 1.02807031250000e+04 4.26922130584717e+00 593 
1.47684240722656e+03 1.08723652343750e+04 3.67927885055542e+00 594 
2.32635913085938e+03 1.17080488281250e+04 5.11483860015869e+00 595 
4.02081860351562e+03 1.28187382812500e+04 3.82874202728271e+00 596 
1.41375109863281e+03 4.06678253173828e+02 6.40604877471924e+00 597 
4.63000048828125e+03 5.10799755859375e+03 1.39097299575806e+01 598 
4.40700683593750e+03 5.31859375000000e+03 1.43928079605103e+01 599 
3.81802978515625e+03 7.34023095703125e+03 1.38239173889160e+01 600 
4.12196923828125e+03 1.96650744628906e+03 7.24873638153076e+00 601 
1.85585485839844e+03 1.12112841796875e+04 1.19292430877686e+01 602 
5.20273730468750e+03 3.20880346679688e+03 1.10159149169922e+01 603 
5.99750390625000e+03 5.35415966796875e+03 7.64577198028564e+00 604 
2.26000708007812e+03 7.06504589843750e+03 8.25323772430420e+00 605 
3.82044604492188e+03 1.05865888671875e+04 7.50815773010254e+00 606 
4.87221484375000e+03 1.14135332031250e+04 9.04341030120850e+00 607 
5.07923876953125e+03 6.32626708984375e+03 1.32368698120117e+01 608 
4.97621630859375e+03 1.84848046875000e+03 7.56413650512695e+00 609 
4.00175708007812e+03 1.97792614746094e+03 9.19595623016357e+00 610 
5.58239697265625e+03 3.25467407226562e+03 8.82996082305908e+00 611 
1.14945471191406e+03 5.59815722656250e+03 8.15163230895996e+00 612 
1.17603491210938e+03 8.29596582031250e+03 1.12875118255615e+01 613 
3.16957568359375e+03 9.00621191406250e+03 7.88070106506348e+00 614 
3.73549560546875e+03 3.37189599609375e+03 1.32448244094849e+01 615 
4.83304443359375e+03 4.93423681640625e+03 1.14879646301270e+01 616 
5.30390136718750e+03 5.36430615234375e+03 1.43926715850830e+01 617 
5.13481640625000e+03 5.81096044921875e+03 1.47442169189453e+01 618 
3.64494091796875e+03 7.77493261718750e+03 1.65035476684570e+01 619 
1.22874499511719e+03 1.06063574218750e+04 2.03662719726562e+01 620 
4.21502685546875e+03 6.97506250000000e+03 1.66928329467773e+01 621 
1.74179211425781e+03 1.11426552734375e+04 1.80583114624023e+01 622 
5.78106591796875e+03 3.85981982421875e+03 1.79701080322266e+01 623 
4.14894921875000e+03 7.14952636718750e+03 1.73066139221191e+01 624 
3.51111132812500e+03 8.12289062500000e+03 1.61245403289795e+01 625 
4.65517285156250e+03 1.15883007812500e+04 2.65692844390869e+01 626 
4.65876953125000e+03 3.51168554687500e+03 2.25759277343750e+01 627 
3.91744360351562e+03 7.38291796875000e+03 1.63624629974365e+01 628 
1.17293530273438e+03 7.43965917968750e+03 2.33642921447754e+01 629 
3.97654467773438e+03 7.90504736328125e+03 1.57939777374268e+01 630 
5.01630273437500e+03 5.22636621093750e+03 3.95658226013184e+01 631 
2.18145947265625e+03 7.62325146484375e+03 3.96120300292969e+01 632 
5.03614208984375e+03 5.51406982421875e+03 3.82734870910645e+01 633 
1.54171484375000e+03 1.09434169921875e+04 3.88446655273438e+01 634 
2.12244189453125e+03 1.12342451171875e+04 8.19120788574219e+01 635 
2.56840063476562e+03 1.70281335449219e+03 4.27776575088501e+00 636 
1.30865698242188e+03 3.61792797851562e+03 3.97144961357117e+00 637 
3.35696630859375e+03 4.39178662109375e+03 3.74047589302063e+00 638 
5.96404199218750e+03 5.04817041015625e+03 4.08100605010986e+00 639 
1.77624389648438e+03 6.88820800781250e+03 5.07049369812012e+00 640 
2.72272167968750e+03 7.23978906250000e+03 3.68607926368713e+00 641 
4.31993701171875e+03 7.91482128906250e+03 3.92456102371216e+00 642 
2.45528149414062e+03 8.76021191406250e+03 3.78465151786804e+00 643 
1.43344445800781e+03 8.98584570312500e+03 4.20838165283203e+00 644 
6.00863720703125e+03 1.08676455078125e+04 3.91182947158813e+00 645 
1.93562670898438e+03 1.10629287109375e+04 4.49615716934204e+00 646 
3.43288940429688e+03 1.12392519531250e+04 4.96959209442139e+00 647 
4.68887792968750e+03 1.13991972656250e+04 4.11730146408081e+00 648 
2.05285058593750e+03 1.18036845703125e+04 4.65635204315186e+00 649 
4.01216845703125e+03 1.18644882812500e+04 4.42092895507812e+00 650 
9.41593383789062e+02 1.24900605468750e+04 4.19249343872070e+00 651 
4.73792529296875e+03 1.26964335937500e+04 5.51323318481445e+00 652 
6.00234375000000e+02 8.63697363281250e+03 6.31573343276978e+00 653 
9.60449768066406e+02 9.57433166503906e+02 3.92502856254578e+00 654 
5.25139013671875e+03 9.95645568847656e+02 4.33175802230835e+00 655 
5.42656494140625e+03 1.06208068847656e+03 4.23775434494019e+00 656 
4.92621484375000e+03 1.12657189941406e+03 4.88373327255249e+00 657 
2.36502172851562e+03 1.37068566894531e+03 3.89677929878235e+00 658 
2.98677416992188e+03 1.75519995117188e+03 5.73202133178711e+00 659 
2.38502392578125e+03 2.44503735351562e+03 3.94172215461731e+00 660 
4.99180419921875e+03 3.08488818359375e+03 4.36879348754883e+00 661 
5.64719677734375e+03 3.08485083007812e+03 4.33096647262573e+00 662 
1.86413134765625e+03 3.26296630859375e+03 3.75001573562622e+00 663 
3.20741821289062e+03 3.37624291992188e+03 4.03885984420776e+00 664 
3.63429321289062e+03 3.39322924804688e+03 5.64061117172241e+00 665 
2.84920068359375e+03 3.51170678710938e+03 5.01250457763672e+00 666 
1.18938598632812e+03 3.59468261718750e+03 4.27246952056885e+00 667 
1.53714758300781e+03 3.65560034179688e+03 3.97291612625122e+00 668 
2.71425903320312e+03 3.67551806640625e+03 4.16195106506348e+00 669 
1.01541949462891e+03 4.80492919921875e+03 4.82135200500488e+00 670 
1.32615905761719e+03 2.11328295898438e+03 6.16306018829346e+00 671 
5.25108496093750e+03 3.68063769531250e+03 6.06636571884155e+00 672 
5.97292578125000e+03 5.27145117187500e+03 6.63583374023438e+00 673 
3.79221899414062e+03 8.11466845703125e+03 6.43597269058228e+00 674 
6.00602539062500e+03 8.18320861816406e+02 3.87583613395691e+00 675 
2.40684252929688e+03 1.37187561035156e+03 4.28760290145874e+00 676 
6.68397903442383e+01 1.78224243164062e+03 4.07143402099609e+00 677 
7.29138427734375e+02 2.05294848632812e+03 5.59924459457397e+00 678 
2.75292846679688e+02 2.74793017578125e+03 5.10981845855713e+00 679 
5.62525732421875e+03 3.10732910156250e+03 3.81898856163025e+00 680 
5.05893505859375e+03 3.12976489257812e+03 4.14103841781616e+00 681 
5.25639648437500e+03 3.61412963867188e+03 3.88602733612061e+00 682 
8.43000488281250e+02 3.97194287109375e+03 4.14469194412231e+00 683 
2.72675781250000e+03 4.45453710937500e+03 4.25701761245728e+00 684 
2.58744482421875e+03 4.77510058593750e+03 4.52263450622559e+00 685 
4.83939941406250e+03 5.54763281250000e+03 5.27601194381714e+00 686 
5.07624316406250e+03 5.79022119140625e+03 3.67878222465515e+00 687 
4.32721923828125e+03 6.03010937500000e+03 3.73835492134094e+00 688 
4.72684375000000e+03 6.87089062500000e+03 4.11276769638062e+00 689 
2.54709204101562e+03 7.15457568359375e+03 4.25657558441162e+00 690 
3.18070361328125e+03 7.15492187500000e+03 3.90182638168335e+00 691 
5.53757275390625e+03 1.00459843750000e+04 3.62507724761963e+00 692 
4.49277539062500e+03 1.00600986328125e+04 3.61474013328552e+00 693 
5.03167675781250e+03 1.07848662109375e+04 4.46866416931152e+00 694 
3.97792211914062e+03 1.17307402343750e+04 4.29309129714966e+00 695 
4.09317675781250e+03 1.17284296875000e+04 3.99711322784424e+00 696 
2.96916967773438e+03 1.22683300781250e+04 3.91877508163452e+00 697 
2.01597607421875e+03 1.28868281250000e+04 3.88478755950928e+00 698 
5.98527246093750e+03 5.31312353515625e+03 6.44979524612427e+00 699 
1.21268237304688e+03 5.63653027343750e+03 6.58307409286499e+00 700 
2.88966870117188e+03 1.02367822265625e+04 5.76651716232300e+00 701 
3.01874951171875e+03 1.06291064453125e+04 1.06372032165527e+01 702 
4.64265966796875e+03 2.81611279296875e+03 1.34350090026855e+01 703 
5.77855126953125e+03 6.28576708984375e+03 4.09899806976318e+00 704 
3.20984667968750e+03 6.48761035156250e+03 4.33361577987671e+00 705 
5.71070703125000e+03 6.48808789062500e+03 4.90706729888916e+00 706 
5.16894287109375e+03 6.92497167968750e+03 4.98812627792358e+00 707 
2.71728100585938e+03 7.24626074218750e+03 3.56859087944031e+00 708 
3.37394238281250e+03 7.83573388671875e+03 5.22904062271118e+00 709 
4.72478564453125e+03 7.99236816406250e+03 5.05609083175659e+00 710 
6.08165429687500e+03 8.02447998046875e+03 4.87765645980835e+00 711 
6.25730712890625e+03 8.24582519531250e+03 4.58766222000122e+00 712 
6.73341979980469e+02 8.45929199218750e+03 4.63593482971191e+00 713 
2.50711132812500e+03 8.56767382812500e+03 5.61870336532593e+00 714 
3.92709057617188e+03 8.61283007812500e+03 5.20292568206787e+00 715 
6.11539111328125e+03 8.88706445312500e+03 5.61609458923340e+00 716 
4.09586279296875e+03 8.95025488281250e+03 4.41777038574219e+00 717 
4.08899462890625e+03 9.65168359375000e+03 5.09840154647827e+00 718 
4.10967968750000e+03 9.65240625000000e+03 5.56461143493652e+00 719 
1.54864685058594e+02 9.84668847656250e+03 5.16776371002197e+00 720 
5.31559570312500e+02 1.01654003906250e+04 5.28927469253540e+00 721 
2.68502954101562e+03 1.01636523437500e+04 4.79844713211060e+00 722 
2.59416186523438e+03 1.03592646484375e+04 4.15947723388672e+00 723 
6.94915695190430e+01 1.06738593750000e+04 4.03754568099976e+00 724 
4.51476416015625e+03 1.07231425781250e+04 4.14244890213013e+00 725 
3.39929541015625e+03 1.08917958984375e+04 3.92454361915588e+00 726 
5.58473193359375e+03 1.11994736328125e+04 5.69431829452515e+00 727 
6.24081738281250e+03 1.15715322265625e+04 5.63932371139526e+00 728 
1.42114575195312e+03 1.15909052734375e+04 4.56183767318726e+00 729 
9.20929565429688e+02 1.20034873046875e+04 4.22577524185181e+00 730 
2.96036914062500e+03 1.22630214843750e+04 3.91211795806885e+00 731 
3.20555712890625e+03 1.22625234375000e+04 5.20142841339111e+00 732 
3.27283569335938e+03 1.22604052734375e+04 3.72317051887512e+00 733 
3.60381591796875e+03 1.22618066406250e+04 5.59910202026367e+00 734 
1.20988659667969e+03 1.27163828125000e+04 5.63377237319946e+00 735 
4.02764135742188e+03 1.28122070312500e+04 3.75436615943909e+00 736 
4.01919458007812e+03 1.28287802734375e+04 3.96123433113098e+00 737 
3.89089355468750e+03 1.28625966796875e+04 3.84709310531616e+00 738 
2.02048071289062e+03 1.28775195312500e+04 4.80059623718262e+00 739 
1.17855236816406e+03 1.28899257812500e+04 4.86936855316162e+00 740 
4.63818164062500e+03 1.29130283203125e+04 3.87454748153687e+00 741 
5.92229931640625e+03 8.32753723144531e+02 6.39778757095337e+00 742 
4.85630224609375e+03 1.81112182617188e+03 6.07998180389404e+00 743 
2.98471508789062e+03 2.65435717773438e+03 6.29828882217407e+00 744 
1.09762792968750e+03 3.21612768554688e+03 6.56995582580566e+00 745 
4.26659423828125e+03 3.91168481445312e+03 6.57804632186890e+00 746 
4.24094287109375e+03 3.97221020507812e+03 6.84938430786133e+00 747 
5.09482324218750e+03 4.26078076171875e+03 6.11461162567139e+00 748 
6.06900439453125e+03 4.77038769531250e+03 6.49725055694580e+00 749 
3.03069165039062e+03 5.08226416015625e+03 6.59482288360596e+00 750 
5.09889697265625e+03 5.81430322265625e+03 6.11988067626953e+00 751 
1.40233789062500e+03 7.24407910156250e+03 6.42982053756714e+00 752 
2.10734448242188e+03 8.35855859375000e+03 6.05305814743042e+00 753 
3.64213531494141e+02 8.77264257812500e+03 6.25229310989380e+00 754 
5.06506591796875e+03 9.18264746093750e+03 6.16722774505615e+00 755 
1.53296057128906e+03 9.67644726562500e+03 6.39670181274414e+00 756 
4.47044091796875e+03 1.00352968750000e+04 6.22041797637939e+00 757 
5.75747509765625e+03 1.19809638671875e+04 5.88790178298950e+00 758 
2.62256787109375e+03 1.22682880859375e+04 6.26383638381958e+00 759 
2.53205688476562e+03 1.23640029296875e+04 6.38699531555176e+00 760 
5.34737207031250e+03 1.25403798828125e+04 6.26007652282715e+00 761 
4.07207977294922e+02 1.79521453857422e+02 3.40517020225525e+00 762 
2.77358422851562e+03 5.32559875488281e+02 5.75872325897217e+00 763 
5.83817333984375e+03 5.51709228515625e+02 5.65068292617798e+00 764 
3.11362304687500e+02 8.36551940917969e+02 5.04240942001343e+00 765 
5.53015576171875e+03 1.10416027832031e+03 5.22217512130737e+00 766 
2.95243530273438e+03 1.60825683593750e+03 3.83865761756897e+00 767 
5.51970214843750e+03 1.75995544433594e+03 3.56884765625000e+00 768 
5.80826855468750e+03 1.91867541503906e+03 4.64744901657104e+00 769 
5.46974414062500e+03 1.93505834960938e+03 4.11370658874512e+00 770 
5.06685839843750e+03 3.13904272460938e+03 5.04188394546509e+00 771 
5.58030566406250e+03 3.23458007812500e+03 4.60571289062500e+00 772 
5.23330468750000e+03 3.52596826171875e+03 4.83534622192383e+00 773 
8.30719223022461e+01 3.53988012695312e+03 5.69587373733521e+00 774 
4.30959960937500e+03 3.79361767578125e+03 5.70544815063477e+00 775 
1.65166174316406e+03 4.22411669921875e+03 3.69939565658569e+00 776 
3.91557299804688e+03 4.40161035156250e+03 3.95565414428711e+00 777 
1.12178253173828e+02 4.59177050781250e+03 4.67379236221313e+00 778 
4.55807958984375e+03 4.74730273437500e+03 5.40549135208130e+00 779 
3.87350292968750e+03 4.98199804687500e+03 5.78865718841553e+00 780 
3.86176245117188e+03 5.01327343750000e+03 5.40579271316528e+00 781 
3.06057373046875e+03 5.55707812500000e+03 4.80870771408081e+00 782 
6.88015136718750e+02 6.05543945312500e+03 4.77061510086060e+00 783 
3.48610009765625e+03 6.05295214843750e+03 4.20094060897827e+00 784 
1.01460900878906e+03 6.15531250000000e+03 4.84592676162720e+00 785 
1.25521313476562e+03 6.23209960937500e+03 5.56326293945312e+00 786 
1.66964916992188e+03 6.59377294921875e+03 5.55120706558228e+00 787 
3.28814599609375e+03 6.75437939453125e+03 3.82998538017273e+00 788 
2.51434985351562e+03 7.15520068359375e+03 5.69814395904541e+00 789 
5.63913085937500e+03 7.31596972656250e+03 4.04295873641968e+00 790 
3.68111767578125e+03 7.44621728515625e+03 3.66802358627319e+00 791 
1.54766198730469e+03 7.84697705078125e+03 5.14806747436523e+00 792 
6.26583105468750e+03 8.09527343750000e+03 5.12716722488403e+00 793 
2.11210498046875e+03 8.33605371093750e+03 4.24991178512573e+00 794 
4.00715332031250e+03 8.74006738281250e+03 4.61521291732788e+00 795 
4.50253845214844e+02 8.78667285156250e+03 4.40022468566895e+00 796 
4.78865173339844e+02 8.80175488281250e+03 3.96424555778503e+00 797 
4.06396459960938e+03 8.88070019531250e+03 5.25620841979980e+00 798 
4.74304296875000e+03 9.04259375000000e+03 4.47134399414062e+00 799 
1.62749902343750e+03 9.12056347656250e+03 4.56015825271606e+00 800 
1.33590295410156e+03 9.19703710937500e+03 5.62749624252319e+00 801 
5.73377539062500e+03 9.66422851562500e+03 3.82094717025757e+00 802 
4.20908154296875e+03 9.67257519531250e+03 5.00607585906982e+00 803 
5.74876562500000e+03 9.67148437500000e+03 3.81672239303589e+00 804 
2.65805938720703e+02 9.79866308593750e+03 5.37019729614258e+00 805 
3.64171325683594e+02 9.86650390625000e+03 5.55364894866943e+00 806 
5.63170996093750e+03 9.99535839843750e+03 5.11053514480591e+00 807 
2.62995971679688e+03 1.01396347656250e+04 5.27222824096680e+00 808 
2.08485253906250e+03 1.01697187500000e+04 4.12884998321533e+00 809 
6.26618945312500e+03 1.03768349609375e+04 4.14105844497681e+00 810 
4.03272558593750e+03 1.05531503906250e+04 5.39513969421387e+00 811 
1.14818664550781e+03 1.05893671875000e+04 4.59173679351807e+00 812 
6.08880175781250e+03 1.08400361328125e+04 4.02756834030151e+00 813 
2.42597558593750e+03 1.09040439453125e+04 4.18079996109009e+00 814 
5.99339208984375e+03 1.09203691406250e+04 4.50669193267822e+00 815 
3.33394946289062e+03 1.11783994140625e+04 5.01656198501587e+00 816 
2.32155371093750e+03 1.13624482421875e+04 5.14121246337891e+00 817 
5.93274755859375e+03 1.14660449218750e+04 5.56859397888184e+00 818 
6.27014697265625e+03 1.15202265625000e+04 4.36519241333008e+00 819 
3.91441894531250e+03 1.15366142578125e+04 5.38047456741333e+00 820 
3.08196972656250e+03 1.15551464843750e+04 5.48896503448486e+00 821 
1.87325256347656e+03 1.15856455078125e+04 4.29711771011353e+00 822 
5.83032165527344e+02 1.16763789062500e+04 3.70162534713745e+00 823 
3.73599707031250e+03 1.16943291015625e+04 5.06027030944824e+00 824 
2.92386791992188e+03 1.17430927734375e+04 4.96097421646118e+00 825 
2.97010498046875e+03 1.17421689453125e+04 5.27354097366333e+00 826 
1.81389282226562e+03 1.18047753906250e+04 5.48685121536255e+00 827 
4.84239794921875e+03 1.19036064453125e+04 4.88425970077515e+00 828 
2.52068847656250e+03 1.20316933593750e+04 5.50362825393677e+00 829 
1.09623809814453e+02 1.22272128906250e+04 4.49253177642822e+00 830 
5.20095263671875e+03 1.24163808593750e+04 5.60283565521240e+00 831 
4.36033007812500e+03 1.24649970703125e+04 4.00505018234253e+00 832 
2.42910644531250e+03 1.25297089843750e+04 4.87659025192261e+00 833 
5.36883691406250e+03 1.25316679687500e+04 5.15812444686890e+00 834 
5.25422070312500e+03 1.26405097656250e+04 4.22810220718384e+00 835 
4.55734423828125e+03 1.28646523437500e+04 3.89138936996460e+00 836 
3.85769360351562e+03 1.28946240234375e+04 3.70067477226257e+00 837 
3.93072753906250e+03 1.28926201171875e+04 3.70249938964844e+00 838 
4.64372851562500e+03 1.16790966796875e+03 6.46398687362671e+00 839 
1.80683044433594e+03 5.63942968750000e+03 1.16627531051636e+01 840 
2.69948291015625e+03 1.02295371093750e+04 1.36992530822754e+01 841 
2.47165795898438e+03 1.02893945312500e+04 1.34029254913330e+01 842 
4.05407348632812e+03 8.40573547363281e+02 7.37717485427856e+00 843 
4.55307617187500e+03 8.41513122558594e+02 7.85458517074585e+00 844 
3.22887915039062e+03 9.00512451171875e+02 9.44202804565430e+00 845 
1.32774450683594e+03 9.52290039062500e+02 7.33005332946777e+00 846 
3.44852783203125e+02 1.51825219726562e+03 1.09231233596802e+01 847 
3.09964630126953e+02 3.16798828125000e+03 1.11869077682495e+01 848 
4.54402539062500e+03 3.20062646484375e+03 7.24578523635864e+00 849 
5.23529150390625e+03 3.54270727539062e+03 8.15831279754639e+00 850 
2.21904067993164e+02 3.96347119140625e+03 9.51829242706299e+00 851 
4.97754101562500e+03 5.26534130859375e+03 7.73252010345459e+00 852 
2.79211840820312e+03 5.87767919921875e+03 9.52801513671875e+00 853 
6.04806640625000e+02 8.09134814453125e+03 8.00788211822510e+00 854 
3.21386669921875e+03 8.66875781250000e+03 8.88871383666992e+00 855 
2.96918627929688e+03 9.06612500000000e+03 8.56688976287842e+00 856 
2.93679321289062e+03 9.19611914062500e+03 8.87261772155762e+00 857 
4.09605468750000e+03 1.02544150390625e+04 1.04779291152954e+01 858 
3.25747753906250e+03 1.05140966796875e+04 8.61727714538574e+00 859 
3.83946166992188e+03 1.05821250000000e+04 9.54894924163818e+00 860 
4.58786767578125e+03 1.05809208984375e+04 8.49417400360107e+00 861 
2.94414746093750e+03 1.06114736328125e+04 7.90716218948364e+00 862 
3.25170483398438e+03 1.06125849609375e+04 8.18688297271729e+00 863 
5.17765820312500e+03 1.14636074218750e+04 8.07617092132568e+00 864 
1.44398168945312e+03 1.19148671875000e+04 7.79006624221802e+00 865 
1.08624426269531e+03 1.20099150390625e+04 9.42268466949463e+00 866 
6.10889892578125e+02 9.01943542480469e+02 1.18769683837891e+01 867 
3.44587060546875e+03 1.15598962402344e+03 1.17093982696533e+01 868 
4.57900781250000e+03 9.33199316406250e+03 1.31319007873535e+01 869 
3.03640625000000e+03 1.02053710937500e+04 1.19635591506958e+01 870 
9.96945007324219e+02 1.03586103515625e+04 1.36235818862915e+01 871 
5.98160693359375e+03 1.23264902343750e+04 1.17551784515381e+01 872 
4.14559667968750e+03 1.99434982299805e+02 7.11486577987671e+00 873 
4.92946728515625e+03 2.83344726562500e+02 7.54290437698364e+00 874 
4.91167431640625e+03 3.08566467285156e+02 7.52864456176758e+00 875 
1.49886730957031e+03 8.55661560058594e+02 7.82744979858398e+00 876 
3.29552929687500e+03 1.07123693847656e+03 1.15038766860962e+01 877 
1.21137046813965e+02 1.37991638183594e+03 1.04867973327637e+01 878 
3.22021972656250e+03 3.34009887695312e+03 8.98390674591064e+00 879 
5.55966845703125e+03 4.33187744140625e+03 8.58117866516113e+00 880 
3.68811303710938e+03 4.78564062500000e+03 1.00641927719116e+01 881 
1.07864318847656e+03 4.81154931640625e+03 7.56417131423950e+00 882 
3.65866333007812e+03 7.25999121093750e+03 8.44885635375977e+00 883 
3.07092895507812e+03 8.67460742187500e+03 7.42655801773071e+00 884 
4.21508544921875e+03 8.73964746093750e+03 7.17784976959229e+00 885 
3.02136621093750e+03 9.35987402343750e+03 1.06208820343018e+01 886 
3.30496069335938e+03 9.78268945312500e+03 1.15441370010376e+01 887 
4.95524560546875e+03 9.82012109375000e+03 9.94738197326660e+00 888 
5.40549609375000e+03 1.01367050781250e+04 8.60657978057861e+00 889 
5.15219335937500e+03 1.10332841796875e+04 7.79903507232666e+00 890 
3.68173266601562e+03 1.16640449218750e+04 8.06414890289307e+00 891 
2.34092553710938e+03 1.21820468750000e+04 9.39301395416260e+00 892 
2.27309399414062e+03 1.23360869140625e+04 8.26632308959961e+00 893 
3.50530541992188e+03 2.26769580078125e+03 1.14539117813110e+01 894 
3.02575683593750e+03 8.61219628906250e+03 1.18469772338867e+01 895 
3.40377099609375e+03 9.66513964843750e+03 1.32318487167358e+01 896 
5.90757128906250e+03 1.03056992187500e+04 1.18533239364624e+01 897 
1.53656311035156e+03 1.04308427734375e+04 1.36867666244507e+01 898 
5.84777001953125e+03 1.09251767578125e+04 1.32456417083740e+01 899 
3.37948413085938e+03 1.22717744140625e+04 1.26189422607422e+01 900 
4.89421826171875e+03 3.33430053710938e+02 7.54527711868286e+00 901 
1.62358078002930e+02 6.62029968261719e+02 1.01126108169556e+01 902 
1.76964831542969e+03 1.30290490722656e+03 7.53502988815308e+00 903 
4.75381774902344e+02 3.13934130859375e+03 8.60770034790039e+00 904 
2.90706518554688e+03 3.47692797851562e+03 1.10231609344482e+01 905 
5.04815039062500e+03 4.37052148437500e+03 6.79432916641235e+00 906 
3.71930761718750e+03 7.03197460937500e+03 1.03720350265503e+01 907 
3.78872680664062e+03 7.05794287109375e+03 8.62744617462158e+00 908 
1.48605102539062e+03 8.00747265625000e+03 9.13935852050781e+00 909 
1.51756274414062e+03 8.52163281250000e+03 1.09231567382812e+01 910 
2.00319897460938e+03 8.65379394531250e+03 8.08772468566895e+00 911 
2.98053955078125e+03 8.74917871093750e+03 8.88871955871582e+00 912 
5.74228149414062e+02 9.10388378906250e+03 1.05040798187256e+01 913 
5.07036718750000e+03 9.54929199218750e+03 9.92625236511230e+00 914 
3.67006494140625e+03 9.86762695312500e+03 9.14113140106201e+00 915 
4.53409423828125e+03 1.00589619140625e+04 7.68148040771484e+00 916 
5.28384863281250e+03 1.13124130859375e+04 7.19897651672363e+00 917 
5.20421093750000e+03 1.13901767578125e+04 8.24150562286377e+00 918 
2.02172656250000e+03 1.18963798828125e+04 1.06887903213501e+01 919 
9.27140686035156e+02 1.25080732421875e+04 8.25720214843750e+00 920 
3.85005297851562e+03 4.14490429687500e+03 1.39145212173462e+01 921 
6.16300537109375e+03 5.06895458984375e+03 1.19812898635864e+01 922 
9.38098144531250e+02 8.81272753906250e+03 1.18894453048706e+01 923 
1.02921093750000e+03 8.84587304687500e+03 1.12695875167847e+01 924 
3.15834619140625e+03 9.31849609375000e+03 1.23321828842163e+01 925 
2.65041137695312e+03 1.02447480468750e+04 1.33798522949219e+01 926 
1.49221435546875e+03 1.04135859375000e+04 1.26818313598633e+01 927 
2.03724914550781e+03 2.31094335937500e+03 1.59030685424805e+01 928 
4.21085693359375e+03 5.64294287109375e+03 1.77632789611816e+01 929 
1.44939050292969e+03 6.58649755859375e+03 1.98005046844482e+01 930 
3.58536865234375e+03 9.58838769531250e+03 2.09332637786865e+01 931 
3.33558740234375e+03 1.00366972656250e+04 1.56204271316528e+01 932 
1.35462585449219e+03 1.03638779296875e+04 1.76958026885986e+01 933 
2.99379150390625e+03 1.06085253906250e+04 2.13726654052734e+01 934 
1.49740148925781e+03 1.08699882812500e+04 1.54621210098267e+01 935 
1.19242687988281e+03 3.11493896484375e+03 2.39134654998779e+01 936 
4.89443310546875e+03 3.67923681640625e+03 2.02095184326172e+01 937 
4.93514257812500e+03 5.21593994140625e+03 2.03854484558105e+01 938 
3.68957543945312e+03 9.86558984375000e+03 2.21274414062500e+01 939 
2.05369335937500e+03 1.01736503906250e+04 1.71408119201660e+01 940 
2.47917187500000e+03 1.03785908203125e+04 1.92482166290283e+01 941 
1.72929162597656e+03 1.19080527343750e+04 1.61227073669434e+01 942 
2.80894580078125e+03 1.27388095703125e+04 2.17836608886719e+01 943 
5.36985839843750e+03 1.16298701171875e+04 2.74063529968262e+01 944 
9.57026550292969e+02 7.71495483398438e+02 1.51520242691040e+01 945 
3.75097900390625e+03 7.28416796875000e+03 1.81324558258057e+01 946 
1.97864611816406e+03 9.35895996093750e+03 2.07054157257080e+01 947 
3.00951562500000e+03 1.02660478515625e+04 1.57679138183594e+01 948 
3.39499267578125e+03 9.15465917968750e+03 2.43659687042236e+01 949 
4.42149853515625e+03 1.09458818359375e+04 2.40122070312500e+01 950 
2.67121435546875e+03 2.38486953735352e+02 1.48404226303101e+01 951 
3.87814086914062e+03 3.25767846679688e+03 1.86916027069092e+01 952 
3.39570825195312e+03 9.95249121093750e+03 1.79709205627441e+01 953 
9.97188476562500e+02 1.16127080078125e+04 1.58712606430054e+01 954 
8.91903564453125e+02 1.19117587890625e+04 2.37819957733154e+01 955 
4.65542382812500e+03 1.25757275390625e+04 2.83739967346191e+01 956 
2.06311816406250e+03 1.04064782714844e+03 2.90553703308105e+01 957 
4.50411474609375e+03 1.24447441406250e+04 3.48665962219238e+01 958 
2.31073681640625e+03 1.10539511718750e+04 8.67082595825195e+01 959 
5.33307763671875e+03 5.49958789062500e+03 8.91934814453125e+01 960 
3.64720922851562e+03 8.18183496093750e+03 7.12467727661133e+01 961 
4.65272900390625e+03 1.01950556640625e+04 6.67363815307617e+01 962 
4.12091406250000e+03 2.20509658813477e+02 4.52775621414185e+00 963 
2.71145202636719e+02 6.82441833496094e+02 4.24655246734619e+00 964 
5.20454150390625e+03 8.56578796386719e+02 3.64999055862427e+00 965 
3.69951977539062e+03 8.75272705078125e+02 4.94349479675293e+00 966 
5.15317333984375e+03 9.53402526855469e+02 5.52413415908813e+00 967 
8.05162597656250e+02 9.64296508789062e+02 4.80422353744507e+00 968 
4.76153857421875e+03 1.68881799316406e+03 5.38041782379150e+00 969 
1.54204113769531e+03 1.70326794433594e+03 4.87448310852051e+00 970 
4.83291552734375e+03 1.80491247558594e+03 4.30233240127563e+00 971 
5.80371240234375e+03 1.86443298339844e+03 3.51508569717407e+00 972 
8.80395080566406e+02 2.02489794921875e+03 3.80747580528259e+00 973 
2.42078100585938e+03 2.74285620117188e+03 3.69568800926208e+00 974 
3.20837231445312e+03 2.74273583984375e+03 4.08941507339478e+00 975 
6.24302880859375e+03 2.83832958984375e+03 3.81275963783264e+00 976 
7.55723754882812e+02 2.90014184570312e+03 5.20609760284424e+00 977 
2.23513500976562e+03 2.99653833007812e+03 4.09977817535400e+00 978 
5.19256689453125e+03 4.40888867187500e+03 5.69588279724121e+00 979 
5.06729492187500e+03 4.50473535156250e+03 5.65576457977295e+00 980 
4.54233105468750e+03 4.73113720703125e+03 4.11403799057007e+00 981 
6.15089404296875e+03 4.76564111328125e+03 3.85122394561768e+00 982 
6.21360205078125e+03 4.80848291015625e+03 4.19453525543213e+00 983 
4.76596832275391e+02 5.04807324218750e+03 5.57435512542725e+00 984 
4.72737030029297e+02 5.06715917968750e+03 5.17604494094849e+00 985 
4.11078906250000e+03 5.80718408203125e+03 4.87304401397705e+00 986 
3.04833129882812e+03 5.87270166015625e+03 3.71615529060364e+00 987 
4.93275097656250e+03 6.25616015625000e+03 5.73069572448730e+00 988 
6.11907177734375e+03 6.64851367187500e+03 5.35719013214111e+00 989 
4.29355285644531e+02 6.77741943359375e+03 5.73235893249512e+00 990 
1.01791906738281e+03 6.87825537109375e+03 5.03702259063721e+00 991 
5.13342871093750e+03 6.93583984375000e+03 5.20591831207275e+00 992 
5.34068847656250e+03 7.11319873046875e+03 5.44803237915039e+00 993 
4.99271289062500e+03 7.33634423828125e+03 4.65575981140137e+00 994 
5.86683496093750e+03 7.38461621093750e+03 5.36892318725586e+00 995 
5.46585546875000e+03 7.78672216796875e+03 5.00619983673096e+00 996 
4.74339111328125e+03 7.94525781250000e+03 4.22339677810669e+00 997 
5.45064086914062e+02 8.06628466796875e+03 4.95698881149292e+00 998 
1.83346508789062e+03 8.16272314453125e+03 4.20153665542603e+00 999 
6.20649023437500e+03 8.31478027343750e+03 5.42159128189087e+00 1000 
4.57171826171875e+03 8.39312402343750e+03 5.41085004806519e+00 1001 
6.04153808593750e+03 8.51597558593750e+03 5.58487224578857e+00 1002 
5.96911621093750e+03 8.87413281250000e+03 4.01691389083862e+00 1003 
1.65452160644531e+03 8.98458496093750e+03 3.92592096328735e+00 1004 
1.57285717773438e+03 9.03220410156250e+03 3.99797582626343e+00 1005 
1.70805480957031e+03 9.04872265625000e+03 3.73329758644104e+00 1006 
4.27712646484375e+03 9.22465136718750e+03 5.68484592437744e+00 1007 
4.12051562500000e+03 9.62071484375000e+03 5.49507999420166e+00 1008 
4.05071472167969e+02 9.81152832031250e+03 5.35196161270142e+00 1009 
3.68759790039062e+03 9.84100488281250e+03 5.02103137969971e+00 1010 
2.25376708984375e+02 9.85319824218750e+03 5.56390047073364e+00 1011 
5.93247265625000e+03 9.92014648437500e+03 3.89142942428589e+00 1012 
5.54766552734375e+03 1.00186015625000e+04 4.36188983917236e+00 1013 
2.01717639160156e+03 1.02085820312500e+04 4.52336931228638e+00 1014 
3.85323193359375e+03 1.03355507812500e+04 5.29065275192261e+00 1015 
4.52917285156250e+03 1.05799218750000e+04 4.98782730102539e+00 1016 
1.38430770874023e+02 1.06794892578125e+04 4.19817066192627e+00 1017 
4.41762060546875e+03 1.07747138671875e+04 3.37219524383545e+00 1018 
6.00013916015625e+03 1.09023027343750e+04 4.34955978393555e+00 1019 
1.55211090087891e+02 1.09153310546875e+04 5.66657924652100e+00 1020 
5.65820019531250e+03 1.12050957031250e+04 4.05011940002441e+00 1021 
6.15822119140625e+03 1.12794287109375e+04 5.56902933120728e+00 1022 
5.24469335937500e+03 1.12999179687500e+04 4.54981613159180e+00 1023 
3.42656396484375e+03 1.15461230468750e+04 4.54694604873657e+00 1024 
1.35430187988281e+03 1.15923330078125e+04 4.01065349578857e+00 1025 
1.51526171875000e+03 1.15923271484375e+04 4.93362092971802e+00 1026 
