ply
format ascii 1.0
element vertex 570
property double x
property double y
property double size
property short id
end_header
4.78721923828125e+03 1.66061083984375e+03 8.20870304107666e+00 0 
2.01967614746094e+03 2.14987548828125e+03 1.34989767074585e+01 1 
1.36813171386719e+03 5.39190527343750e+03 1.15050001144409e+01 2 
3.39261181640625e+03 6.61094140625000e+03 1.33115367889404e+01 3 
6.64522827148438e+02 4.45800244140625e+03 9.53241920471191e+00 4 
3.86195263671875e+03 8.12221777343750e+03 1.29607515335083e+01 5 
5.03695605468750e+03 2.06624877929688e+02 1.77959480285645e+01 6 
1.78792529296875e+03 2.06705346679688e+03 1.58472518920898e+01 7 
2.07014892578125e+03 1.67014721679688e+03 1.76952362060547e+01 8 
2.24980200195312e+03 3.63828369140625e+02 1.85537509918213e+01 9 
2.14825952148438e+03 9.99962646484375e+02 1.74609088897705e+01 10 
1.94029492187500e+03 1.63210351562500e+03 1.61729946136475e+01 11 
1.70565173339844e+03 2.32203955078125e+03 1.76328334808350e+01 12 
1.42208068847656e+03 5.42920996093750e+03 2.59533176422119e+01 13 
1.91110668945312e+03 1.71907580566406e+03 1.72956542968750e+01 14 
1.72795532226562e+03 2.24460986328125e+03 1.57929830551147e+01 15 
1.98650146484375e+03 2.24206835937500e+03 1.51384010314941e+01 16 
1.83453552246094e+03 2.36643115234375e+03 1.66881427764893e+01 17 
5.37935498046875e+03 7.43208105468750e+03 1.51784620285034e+01 18 
2.60659301757812e+03 4.82194287109375e+03 3.50239830017090e+01 19 
3.68114672851562e+03 4.33062957763672e+02 4.04546880722046e+00 20 
3.85865917968750e+03 9.46510498046875e+02 4.32088994979858e+00 21 
2.15222167968750e+03 1.13755139160156e+03 4.35588407516479e+00 22 
5.61260351562500e+03 3.36815722656250e+03 3.93636393547058e+00 23 
4.86317333984375e+03 4.64104394531250e+03 5.03519392013550e+00 24 
1.33970190429688e+03 6.63711767578125e+03 3.80187082290649e+00 25 
6.30392089843750e+03 6.45443505859375e+03 6.01028299331665e+00 26 
5.72624023437500e+03 1.13294946289062e+03 3.69288587570190e+00 27 
4.45604541015625e+03 1.75215942382812e+03 4.38186311721802e+00 28 
1.41375292968750e+03 5.37273242187500e+03 3.78321695327759e+00 29 
1.41143081665039e+02 6.73926171875000e+03 3.68057584762573e+00 30 
4.19989794921875e+03 7.15416455078125e+03 7.07008695602417e+00 31 
3.67300097656250e+03 4.56957458496094e+02 4.55108070373535e+00 32 
3.86387158203125e+03 9.31334045410156e+02 3.82591819763184e+00 33 
2.54660919189453e+02 1.27061535644531e+03 4.71979427337646e+00 34 
1.35180847167969e+03 1.34774658203125e+03 3.92553257942200e+00 35 
5.62862500000000e+03 5.29828808593750e+03 3.81399488449097e+00 36 
2.28962353515625e+03 5.85496482849121e+01 5.86631917953491e+00 37 
3.98519213867188e+03 8.94103149414062e+02 6.22551441192627e+00 38 
3.60309179687500e+03 8.05579492187500e+03 3.87202644348145e+00 39 
2.77377294921875e+03 2.33638647460938e+03 6.00811195373535e+00 40 
3.01165966796875e+03 1.64326831054688e+03 5.08204412460327e+00 41 
2.71361145019531e+02 8.15812060546875e+03 3.80975103378296e+00 42 
5.19335791015625e+03 1.40122814941406e+03 7.16090679168701e+00 43 
5.70844677734375e+03 5.97720800781250e+03 7.97209882736206e+00 44 
3.56650805664062e+03 6.68520605468750e+03 8.96493148803711e+00 45 
2.23193627929688e+03 7.00279052734375e+03 8.07159328460693e+00 46 
2.27593994140625e+03 7.21324902343750e+03 1.05113964080811e+01 47 
3.18380053710938e+03 7.43716406250000e+03 9.59750366210938e+00 48 
4.42047607421875e+03 7.95797900390625e+03 8.33041572570801e+00 49 
1.58339648437500e+03 8.01464111328125e+03 7.61563825607300e+00 50 
4.96269726562500e+03 6.50425000000000e+03 1.29488010406494e+01 51 
2.99709228515625e+03 1.22616052246094e+03 7.12224531173706e+00 52 
4.40235742187500e+03 2.75243530273438e+03 8.41842937469482e+00 53 
5.79714550781250e+03 3.39644311523438e+03 8.04608058929443e+00 54 
5.29257568359375e+03 3.45795141601562e+03 8.31537628173828e+00 55 
1.33534008789062e+03 3.71753955078125e+03 9.66005897521973e+00 56 
2.24093652343750e+03 7.17245410156250e+03 8.46746253967285e+00 57 
5.03884246826172e+02 2.25002368164062e+03 7.27113342285156e+00 58 
4.86281188964844e+02 2.27948706054688e+03 9.24072647094727e+00 59 
4.95241943359375e+03 2.44322607421875e+03 7.92238473892212e+00 60 
3.64755249023438e+03 3.36856005859375e+03 7.71397638320923e+00 61 
1.26297680664062e+03 4.10663916015625e+03 7.48666095733643e+00 62 
6.23481298828125e+03 4.13888867187500e+03 7.95521926879883e+00 63 
3.29098828125000e+03 5.28017773437500e+03 1.04409961700439e+01 64 
2.28474658203125e+03 6.91981494140625e+03 1.04699220657349e+01 65 
2.73471704101562e+03 7.75819238281250e+03 1.04043054580688e+01 66 
4.52753417968750e+03 8.06573632812500e+03 7.97506904602051e+00 67 
7.53034423828125e+02 8.31646289062500e+03 7.23469352722168e+00 68 
6.02679345703125e+03 7.65679785156250e+03 1.36337356567383e+01 69 
4.02445043945312e+03 2.19170532226562e+02 1.47052974700928e+01 70 
2.81854882812500e+03 6.32691650390625e+03 2.49243297576904e+01 71 
3.25315893554688e+03 6.57687548828125e+03 2.42585144042969e+01 72 
4.40536767578125e+03 7.27767919921875e+03 2.48807525634766e+01 73 
4.91995458984375e+03 8.39825683593750e+02 2.01273784637451e+01 74 
3.24794750976562e+03 5.45709375000000e+03 2.55790557861328e+01 75 
3.08948364257812e+03 6.48563964843750e+03 2.50902366638184e+01 76 
4.44543115234375e+03 6.08216064453125e+03 2.31755867004395e+01 77 
3.53206494140625e+03 6.65342138671875e+03 1.58652238845825e+01 78 
4.33262695312500e+03 7.23381005859375e+03 2.25594406127930e+01 79 
5.64225878906250e+03 6.75791699218750e+03 2.53658828735352e+01 80 
4.34574707031250e+03 1.75382360839844e+03 4.90485343933105e+01 81 
1.00674426269531e+03 2.67585302734375e+03 9.27788925170898e+01 82 
4.04430444335938e+03 2.57424316406250e+02 4.65934228897095e+00 83 
3.23227148437500e+03 9.62104309082031e+02 5.53043460845947e+00 84 
3.43310595703125e+03 1.10610668945312e+03 5.21638393402100e+00 85 
4.96467382812500e+03 1.99845434570312e+03 5.12227392196655e+00 86 
2.77100903320312e+03 2.35298974609375e+03 5.39870262145996e+00 87 
4.90767187500000e+03 2.58015869140625e+03 4.98741531372070e+00 88 
4.08143310546875e+03 4.09731005859375e+03 5.65295076370239e+00 89 
4.85193798828125e+03 4.64041357421875e+03 3.73147869110107e+00 90 
4.42501464843750e+03 5.84344677734375e+03 5.49249935150146e+00 91 
3.93828906250000e+03 6.30859228515625e+03 4.87933874130249e+00 92 
4.43760839843750e+03 8.09754638671875e+03 4.45750093460083e+00 93 
6.09706445312500e+03 3.66695281982422e+02 6.26303052902222e+00 94 
3.89080444335938e+03 3.83407653808594e+02 5.60507822036743e+00 95 
6.13430859375000e+03 1.94567700195312e+03 6.69867563247681e+00 96 
5.18878906250000e+03 2.02709350585938e+03 6.15941190719604e+00 97 
4.92967724609375e+03 2.44037597656250e+03 7.01021575927734e+00 98 
3.78188891601562e+03 2.96311206054688e+03 6.12908887863159e+00 99 
2.54063183593750e+03 3.04134204101562e+03 6.38369846343994e+00 100 
5.40944433593750e+03 3.33820483398438e+03 7.00400876998901e+00 101 
4.07876074218750e+03 3.86236328125000e+03 6.44512653350830e+00 102 
5.75771044921875e+03 4.26927539062500e+03 6.19819784164429e+00 103 
3.77372998046875e+03 4.70932226562500e+03 7.14361333847046e+00 104 
4.43491259765625e+03 5.65345898437500e+03 6.30568981170654e+00 105 
1.47228027343750e+03 6.82073583984375e+03 7.11950349807739e+00 106 
4.30068261718750e+03 7.89278808593750e+03 6.55874824523926e+00 107 
3.10143457031250e+03 3.56968933105469e+02 4.36492013931274e+00 108 
5.53049414062500e+03 9.21157653808594e+02 3.53972744941711e+00 109 
5.42270214843750e+03 1.37183020019531e+03 5.27641344070435e+00 110 
6.10539794921875e+03 2.05694042968750e+03 5.57099437713623e+00 111 
5.72444482421875e+03 2.18331250000000e+03 5.34563446044922e+00 112 
3.41413354492188e+03 2.56517578125000e+03 3.95811653137207e+00 113 
5.53593457031250e+03 3.34243334960938e+03 4.52818584442139e+00 114 
5.56882861328125e+03 3.34292407226562e+03 5.60918283462524e+00 115 
5.61300390625000e+03 3.35508715820312e+03 5.43863058090210e+00 116 
2.90062500000000e+03 4.30021142578125e+03 4.25043630599976e+00 117 
5.39285791015625e+03 4.70860693359375e+03 4.23361778259277e+00 118 
4.49508984375000e+03 5.02901757812500e+03 5.41063261032104e+00 119 
3.79728808593750e+03 5.05012353515625e+03 4.18235921859741e+00 120 
2.09426416015625e+03 5.39050878906250e+03 3.92698454856873e+00 121 
4.29994335937500e+03 5.72456591796875e+03 4.49428796768188e+00 122 
3.48264672851562e+03 6.61125878906250e+03 4.50410604476929e+00 123 
2.96032519531250e+03 3.70328930664062e+03 6.38636112213135e+00 124 
3.87541699218750e+03 5.13789111328125e+03 6.07307767868042e+00 125 
5.71848535156250e+03 6.00406347656250e+03 5.78088617324829e+00 126 
4.52759423828125e+03 6.33154980468750e+03 6.93491363525391e+00 127 
2.44675024414062e+03 8.04529199218750e+03 6.42344808578491e+00 128 
5.33227490234375e+03 9.80273620605469e+02 3.90733265876770e+00 129 
3.01225659179688e+03 1.06240405273438e+03 5.63902282714844e+00 130 
5.43581298828125e+02 1.78066015625000e+03 3.70644712448120e+00 131 
5.01835937500000e+03 2.00712719726562e+03 5.44350051879883e+00 132 
5.14773291015625e+03 2.00601196289062e+03 5.72002649307251e+00 133 
4.35091796875000e+03 2.25018554687500e+03 5.24141836166382e+00 134 
4.21280456542969e+02 2.42844531250000e+03 4.21543550491333e+00 135 
5.18463330078125e+03 3.47190942382812e+03 5.69267082214355e+00 136 
4.78678564453125e+03 3.69550708007812e+03 3.77898550033569e+00 137 
2.97614941406250e+03 4.18304785156250e+03 4.21835803985596e+00 138 
2.55752563476562e+03 5.20009814453125e+03 4.05559730529785e+00 139 
2.12896142578125e+03 5.45627929687500e+03 3.91261243820190e+00 140 
2.30301000976562e+03 5.47333203125000e+03 3.73959159851074e+00 141 
5.00093408203125e+03 6.17004492187500e+03 5.20873928070068e+00 142 
1.41954357910156e+03 6.82649804687500e+03 5.40253639221191e+00 143 
4.29908984375000e+03 7.24083007812500e+03 3.84213590621948e+00 144 
5.75881494140625e+03 7.28443847656250e+03 4.00144338607788e+00 145 
5.47815478515625e+03 7.68111767578125e+03 5.46682405471802e+00 146 
5.07611035156250e+03 8.17793701171875e+03 4.83147335052490e+00 147 
3.42531103515625e+03 3.70834594726562e+02 5.67669439315796e+00 148 
1.07127368164062e+03 7.51112548828125e+02 5.92381715774536e+00 149 
5.92696582031250e+03 1.20994787597656e+03 6.31590509414673e+00 150 
4.57500585937500e+03 1.25893420410156e+03 6.28527688980103e+00 151 
5.19533398437500e+03 1.40237280273438e+03 6.23648166656494e+00 152 
6.75735595703125e+02 1.84450964355469e+03 6.09673023223877e+00 153 
4.96678369140625e+03 1.97517736816406e+03 5.87274026870728e+00 154 
2.78194091796875e+03 2.32377343750000e+03 6.53232574462891e+00 155 
2.49635815429688e+03 3.17311157226562e+03 6.08837175369263e+00 156 
4.08039868164062e+03 3.92186669921875e+03 6.63951539993286e+00 157 
5.41701269531250e+03 4.71276318359375e+03 5.72802162170410e+00 158 
3.78789331054688e+03 4.75590429687500e+03 6.40759038925171e+00 159 
4.49377050781250e+03 5.05373730468750e+03 6.82616996765137e+00 160 
1.11375907897949e+02 5.11478271484375e+03 5.90511846542358e+00 161 
1.90279321289062e+03 6.44931640625000e+03 6.51143741607666e+00 162 
1.28239233398438e+03 6.52995410156250e+03 6.27948331832886e+00 163 
1.70804699707031e+03 7.03963427734375e+03 6.69232606887817e+00 164 
4.36657031250000e+03 7.93235009765625e+03 6.70088195800781e+00 165 
4.84861328125000e+03 3.32343969726562e+03 1.03620223999023e+01 166 
4.19905517578125e+03 4.34368310546875e+03 9.46548843383789e+00 167 
4.88154736328125e+03 6.61244433593750e+03 7.13104867935181e+00 168 
1.21707893371582e+02 6.73702490234375e+03 8.60186958312988e+00 169 
4.53730615234375e+03 8.02675439453125e+03 8.39626598358154e+00 170 
5.79743115234375e+03 4.06458618164062e+03 1.31217632293701e+01 171 
2.42839819335938e+03 8.05912402343750e+03 5.45722150802612e+00 172 
5.16797753906250e+03 1.81003234863281e+03 6.26492214202881e+00 173 
3.69408935546875e+03 1.92155480957031e+03 7.29947042465210e+00 174 
3.19932788085938e+03 3.28881567382812e+03 6.44785451889038e+00 175 
5.34611621093750e+03 3.32218676757812e+03 5.63229465484619e+00 176 
5.43819238281250e+03 3.34176953125000e+03 6.28673458099365e+00 177 
4.08156054687500e+03 3.98339233398438e+03 6.25495815277100e+00 178 
4.23667724609375e+03 4.30353564453125e+03 7.36338376998901e+00 179 
4.07966088867188e+03 4.34516748046875e+03 6.39562082290649e+00 180 
5.72357910156250e+03 4.52365087890625e+03 6.67602586746216e+00 181 
5.62889404296875e+03 5.31498046875000e+03 7.03784322738647e+00 182 
2.25128768920898e+02 8.23335156250000e+03 7.54219961166382e+00 183 
5.86785107421875e+03 9.44356307983398e+01 4.01525831222534e+00 184 
3.02660424804688e+03 2.53537597656250e+02 4.63326025009155e+00 185 
3.78793676757812e+03 3.48704162597656e+02 5.66214179992676e+00 186 
5.78992138671875e+03 4.63404418945312e+02 5.62291669845581e+00 187 
5.69231347656250e+03 1.12952734375000e+03 4.37263631820679e+00 188 
4.59103906250000e+03 1.20801318359375e+03 4.81294012069702e+00 189 
4.74676953125000e+03 1.32245422363281e+03 4.96364402770996e+00 190 
9.31943481445312e+02 1.64254577636719e+03 4.21588230133057e+00 191 
3.71210644531250e+03 1.90610534667969e+03 5.26835441589355e+00 192 
5.11199316406250e+03 2.03262890625000e+03 4.55861902236938e+00 193 
6.11260009765625e+03 2.03244067382812e+03 4.74605703353882e+00 194 
5.18454589843750e+03 2.05058496093750e+03 4.59418201446533e+00 195 
5.81475439453125e+03 3.10846215820312e+03 4.93274927139282e+00 196 
6.23688232421875e+03 3.73570825195312e+03 5.77431535720825e+00 197 
2.91557128906250e+03 4.28741015625000e+03 4.44644165039062e+00 198 
4.08001000976562e+03 4.32195703125000e+03 5.40063333511353e+00 199 
7.70015258789062e+02 4.60635107421875e+03 4.30323362350464e+00 200 
5.32527441406250e+03 4.70303369140625e+03 4.70439624786377e+00 201 
5.62477490234375e+03 5.28918212890625e+03 4.39904069900513e+00 202 
6.21935205078125e+03 6.19330859375000e+03 3.92266106605530e+00 203 
5.48163818359375e+03 6.24880859375000e+03 3.73132872581482e+00 204 
1.30383923339844e+03 6.53824804687500e+03 4.88755178451538e+00 205 
1.42857360839844e+03 6.79708740234375e+03 5.48971033096313e+00 206 
5.48615087890625e+03 7.64262255859375e+03 5.43224382400513e+00 207 
2.82130767822266e+02 8.15579150390625e+03 4.05620861053467e+00 208 
3.41817065429688e+03 2.48569287109375e+03 6.12725305557251e+00 209 
7.81202685546875e+03 1.33568835449219e+03 9.95261669158936e+00 210 
1.59934008789062e+03 5.48365380859375e+03 8.74052524566650e+00 211 
2.86441772460938e+02 3.30433911132812e+03 7.06536197662354e+00 212 
1.59804711914062e+03 2.29405834960938e+03 1.42676038742065e+01 213 
7.12235351562500e+03 4.49707519531250e+03 1.43945875167847e+01 214 
7.25104980468750e+02 3.32455932617188e+03 2.12982521057129e+01 215 
1.16386254882812e+03 4.59780859375000e+03 3.47010002136230e+01 216 
9.41900329589844e+02 5.31436914062500e+03 6.32664337158203e+01 217 
6.52764892578125e+03 6.14722509765625e+03 1.12596725463867e+02 218 
5.74043261718750e+03 8.01340454101562e+02 3.75285363197327e+00 219 
8.46491699218750e+03 1.29761315917969e+03 3.86093449592590e+00 220 
8.08759472656250e+03 3.73610400390625e+03 4.55066347122192e+00 221 
6.42668408203125e+03 5.39673876953125e+03 4.78976535797119e+00 222 
4.58185888671875e+03 5.54297900390625e+03 4.12128973007202e+00 223 
7.19871240234375e+03 7.79666845703125e+03 3.64836335182190e+00 224 
4.46338623046875e+02 8.19750390625000e+03 4.02191495895386e+00 225 
4.69254736328125e+03 9.60323632812500e+03 3.63558793067932e+00 226 
8.45584082031250e+03 1.24434582519531e+03 6.10456180572510e+00 227 
5.41075634765625e+03 3.32243310546875e+03 3.62894535064697e+00 228 
3.65238720703125e+03 3.35262133789062e+03 3.63670635223389e+00 229 
4.27088134765625e+03 4.61884130859375e+03 3.71426248550415e+00 230 
5.52322949218750e+03 6.78354345703125e+03 4.33331012725830e+00 231 
3.66987719726562e+03 5.03962829589844e+02 4.24784326553345e+00 232 
5.76153662109375e+03 7.44403076171875e+02 5.43142414093018e+00 233 
7.26756933593750e+03 1.67075280761719e+03 4.20368099212646e+00 234 
6.87105712890625e+03 6.30413671875000e+03 3.84520077705383e+00 235 
5.22573535156250e+03 3.21182592773438e+03 1.33325214385986e+01 236 
7.79646093750000e+03 5.62607910156250e+03 1.24136981964111e+01 237 
6.02022460937500e+02 7.89583251953125e+03 3.99164938926697e+00 238 
6.66382763671875e+03 1.74284216308594e+03 6.02890253067017e+00 239 
8.08649511718750e+03 3.34288940429688e+03 5.90408182144165e+00 240 
6.38757373046875e+03 6.55815380859375e+03 6.21234607696533e+00 241 
3.03514111328125e+03 4.43540863037109e+02 4.34604787826538e+00 242 
8.07021484375000e+03 1.68302600097656e+03 4.46202135086060e+00 243 
3.63787719726562e+03 2.50109570312500e+03 4.05009698867798e+00 244 
7.00481152343750e+03 1.85226730346680e+02 9.05613708496094e+00 245 
6.64895996093750e+03 1.75328771972656e+03 8.65742874145508e+00 246 
1.56381066894531e+03 2.28788793945312e+03 9.27518177032471e+00 247 
8.10949755859375e+03 3.02707080078125e+03 1.12841453552246e+01 248 
5.01894970703125e+03 4.65692529296875e+03 7.33303022384644e+00 249 
6.83510351562500e+03 4.85326171875000e+03 7.83853673934937e+00 250 
6.96422851562500e+03 5.72337011718750e+03 1.00764732360840e+01 251 
4.82358447265625e+03 6.58973535156250e+03 8.04823589324951e+00 252 
3.97993090820312e+03 6.94799511718750e+03 7.30812501907349e+00 253 
4.01545800781250e+03 6.96980810546875e+03 7.36527204513550e+00 254 
7.86656054687500e+03 7.17421337890625e+03 7.23013687133789e+00 255 
7.96081396484375e+03 7.49929785156250e+03 7.59130382537842e+00 256 
8.62595800781250e+03 5.45001806640625e+03 1.33699760437012e+01 257 
6.15400097656250e+03 7.65093652343750e+03 1.35923099517822e+01 258 
4.67090332031250e+03 2.70559906005859e+02 9.16963100433350e+00 259 
6.78509472656250e+03 3.87735717773438e+03 9.04736423492432e+00 260 
4.14192236328125e+03 3.90830322265625e+03 7.34795999526978e+00 261 
4.22859521484375e+03 4.09547851562500e+03 8.75159931182861e+00 262 
8.15722167968750e+03 4.22890039062500e+03 9.30076122283936e+00 263 
1.93605603027344e+03 6.47866650390625e+03 8.98104476928711e+00 264 
2.25631689453125e+03 6.96409472656250e+03 1.04061918258667e+01 265 
3.17843261718750e+03 7.29901416015625e+03 1.12014932632446e+01 266 
6.39241503906250e+03 3.28612030029297e+02 8.20755100250244e+00 267 
4.41501367187500e+03 2.67088256835938e+03 9.23009490966797e+00 268 
8.08657421875000e+03 3.02166772460938e+03 1.12562427520752e+01 269 
4.31135937500000e+03 3.72437744140625e+03 7.22504234313965e+00 270 
6.90050097656250e+03 4.86852392578125e+03 1.08014163970947e+01 271 
5.86093554687500e+03 5.89058203125000e+03 1.05040674209595e+01 272 
2.31394067382812e+03 6.87433740234375e+03 1.05986633300781e+01 273 
2.89503686523438e+03 7.86823046875000e+03 9.77020931243896e+00 274 
1.01244409179688e+03 4.71929290771484e+02 2.13844623565674e+01 275 
4.10754150390625e+03 7.09258984375000e+03 2.30264663696289e+01 276 
2.73906567382812e+03 2.56496917724609e+02 1.67862224578857e+01 277 
1.34977416992188e+03 2.43935107421875e+03 2.06657695770264e+01 278 
2.32805175781250e+03 2.56442089843750e+03 2.29192256927490e+01 279 
7.40534570312500e+03 3.20757275390625e+03 1.81943416595459e+01 280 
4.15582812500000e+03 3.85135742187500e+03 1.57765884399414e+01 281 
6.24948632812500e+03 4.61259277343750e+03 1.73684558868408e+01 282 
7.87272949218750e+03 5.13116357421875e+03 1.70161590576172e+01 283 
2.53228198242188e+03 1.58980871582031e+03 2.55468139648438e+01 284 
3.30376831054688e+03 5.16342529296875e+03 4.39113044738770e+01 285 
6.79253125000000e+03 6.05850732421875e+03 7.69011383056641e+01 286 
5.60755908203125e+03 6.90187805175781e+02 4.32865762710571e+00 287 
6.29979101562500e+03 9.14615051269531e+02 4.43751335144043e+00 288 
3.02349560546875e+03 1.23161608886719e+03 4.11080217361450e+00 289 
5.30973291015625e+03 1.26598864746094e+03 5.28921222686768e+00 290 
1.23948388671875e+03 1.39315795898438e+03 4.74246263504028e+00 291 
7.80728466796875e+03 2.54715185546875e+03 5.43926286697388e+00 292 
5.22148620605469e+02 2.75069433593750e+03 4.94569969177246e+00 293 
8.28363281250000e+03 2.75130883789062e+03 5.58701181411743e+00 294 
8.67909667968750e+03 3.14622534179688e+03 5.19075775146484e+00 295 
7.76712255859375e+03 3.46873486328125e+03 4.39493751525879e+00 296 
6.17973632812500e+03 3.60850805664062e+03 3.75475120544434e+00 297 
2.27471435546875e+03 4.23543798828125e+03 4.79008197784424e+00 298 
5.04666406250000e+03 4.65922705078125e+03 3.84469866752625e+00 299 
7.60756835937500e+03 5.44533056640625e+03 4.03091287612915e+00 300 
8.61052148437500e+03 5.84565185546875e+03 5.13882637023926e+00 301 
8.41760351562500e+03 6.68671289062500e+03 5.54660892486572e+00 302 
8.34626464843750e+03 6.70189746093750e+03 5.09278964996338e+00 303 
7.80813281250000e+03 7.21439355468750e+03 5.28039646148682e+00 304 
7.89177148437500e+03 7.36100146484375e+03 4.35258626937866e+00 305 
6.20191015625000e+03 2.67553253173828e+02 5.94726037979126e+00 306 
1.31067065429688e+03 5.07592956542969e+02 6.32041740417480e+00 307 
5.84725585937500e+03 1.63127062988281e+03 5.85993099212646e+00 308 
7.27966210937500e+03 1.64698352050781e+03 6.06409072875977e+00 309 
4.72064514160156e+02 2.31923681640625e+03 5.76418113708496e+00 310 
6.78523876953125e+03 3.81279541015625e+03 6.85609197616577e+00 311 
5.81907666015625e+03 3.87711840820312e+03 5.96991920471191e+00 312 
6.40065917968750e+03 3.87707958984375e+03 5.83995819091797e+00 313 
2.99722778320312e+03 4.44605957031250e+03 6.23978519439697e+00 314 
3.83855664062500e+03 5.13134375000000e+03 6.15874767303467e+00 315 
7.73377685546875e+03 5.79099658203125e+03 6.38499164581299e+00 316 
7.73887451171875e+03 5.86871337890625e+03 6.27787399291992e+00 317 
8.33460351562500e+03 6.32731152343750e+03 6.33957672119141e+00 318 
7.42425000000000e+03 3.08692169189453e+02 5.07105588912964e+00 319 
3.06496093750000e+02 9.08375305175781e+02 4.38287353515625e+00 320 
1.45429516601562e+03 1.00416149902344e+03 4.71594905853271e+00 321 
6.24572802734375e+03 1.06793444824219e+03 4.28684759140015e+00 322 
7.65521679687500e+03 1.10316613769531e+03 5.19082212448120e+00 323 
3.46157348632812e+03 1.13255163574219e+03 5.49607610702515e+00 324 
5.77279101562500e+03 1.16627368164062e+03 5.20092630386353e+00 325 
4.84809765625000e+03 1.57168310546875e+03 4.14337396621704e+00 326 
7.25739746093750e+03 1.64348876953125e+03 5.74507045745850e+00 327 
6.36432421875000e+03 2.41042016601562e+03 4.53564405441284e+00 328 
7.83269824218750e+03 3.10344531250000e+03 3.94715023040771e+00 329 
5.70557128906250e+03 3.41061743164062e+03 5.50142097473145e+00 330 
8.60941406250000e+03 4.34801611328125e+03 4.54688358306885e+00 331 
7.06845605468750e+03 4.88749023437500e+03 5.69023084640503e+00 332 
4.58352294921875e+03 5.37446875000000e+03 4.09676170349121e+00 333 
8.68025195312500e+03 5.78558691406250e+03 3.89641380310059e+00 334 
2.91565502929688e+03 5.89120898437500e+03 5.53143453598022e+00 335 
3.55108325195312e+03 6.04740722656250e+03 4.07990217208862e+00 336 
4.94777783203125e+03 6.17590185546875e+03 5.27615547180176e+00 337 
7.45974755859375e+03 6.69068261718750e+03 3.94575238227844e+00 338 
7.82610888671875e+03 6.91340380859375e+03 3.76350641250610e+00 339 
7.82268115234375e+03 6.94485839843750e+03 4.78619194030762e+00 340 
8.76066406250000e+03 6.96074804687500e+03 4.22357082366943e+00 341 
7.54198779296875e+03 3.92697119140625e+03 6.96241235733032e+00 342 
3.81928735351562e+03 5.04585449218750e+03 6.34535789489746e+00 343 
7.26886962890625e+03 5.06797119140625e+03 6.64469289779663e+00 344 
7.51910791015625e+03 6.72797705078125e+03 5.84001350402832e+00 345 
3.67944213867188e+03 1.37889312744141e+02 4.48722791671753e+00 346 
4.37272021484375e+03 2.82811584472656e+02 4.44925451278687e+00 347 
6.23025097656250e+03 4.07443115234375e+02 5.48793411254883e+00 348 
6.66278369140625e+03 4.41854125976562e+02 4.25125837326050e+00 349 
8.48866796875000e+03 7.11915039062500e+02 4.91895818710327e+00 350 
1.10768969726562e+03 9.15961242675781e+02 4.71003580093384e+00 351 
8.45972363281250e+03 1.38029711914062e+03 4.97879362106323e+00 352 
7.58260937500000e+03 1.44482568359375e+03 4.71768474578857e+00 353 
6.42881787109375e+03 1.46196240234375e+03 4.24390077590942e+00 354 
1.47883496093750e+03 1.67137036132812e+03 3.78918790817261e+00 355 
5.71823486328125e+03 2.11841967773438e+03 5.70056962966919e+00 356 
7.20373730468750e+03 2.62402880859375e+03 3.61278080940247e+00 357 
7.97120898437500e+03 2.81597070312500e+03 3.95365118980408e+00 358 
5.58126367187500e+03 3.47393872070312e+03 5.03199386596680e+00 359 
6.80839257812500e+03 3.80844433593750e+03 5.08114337921143e+00 360 
6.81314501953125e+03 3.84045800781250e+03 3.92331075668335e+00 361 
8.18729101562500e+03 4.22874951171875e+03 4.81589984893799e+00 362 
4.19233984375000e+03 4.55059960937500e+03 5.26525831222534e+00 363 
2.91378833007812e+03 4.69840576171875e+03 5.05759334564209e+00 364 
4.54327490234375e+03 5.37745166015625e+03 5.14019870758057e+00 365 
6.45035937500000e+03 5.44191113281250e+03 5.15832948684692e+00 366 
7.43078417968750e+03 6.50041113281250e+03 3.70953392982483e+00 367 
7.44168505859375e+03 6.53483593750000e+03 3.79365348815918e+00 368 
7.53189758300781e+02 7.08218652343750e+03 4.94066619873047e+00 369 
5.49213964843750e+03 7.61674853515625e+03 5.58030462265015e+00 370 
6.61943212890625e+03 7.93341259765625e+03 3.81471872329712e+00 371 
7.42297216796875e+03 8.40669021606445e+01 6.71019315719604e+00 372 
6.22666943359375e+03 2.75012390136719e+02 5.75193214416504e+00 373 
7.40161669921875e+03 3.05267425537109e+02 6.11648273468018e+00 374 
6.12032861328125e+03 3.85941955566406e+02 5.93765926361084e+00 375 
8.49316503906250e+03 6.86685485839844e+02 6.21090650558472e+00 376 
7.42876367187500e+03 7.34416564941406e+02 6.14532518386841e+00 377 
6.57172363281250e+03 1.92421435546875e+03 5.76310396194458e+00 378 
8.51215332031250e+03 2.37245190429688e+03 5.83677434921265e+00 379 
8.70026269531250e+03 3.28564038085938e+03 6.74580383300781e+00 380 
7.54316455078125e+03 3.97148071289062e+03 7.04642248153687e+00 381 
6.87482568359375e+03 4.15193652343750e+03 6.82507228851318e+00 382 
7.26768066406250e+03 5.31906640625000e+03 6.85170269012451e+00 383 
7.74819726562500e+03 5.88975488281250e+03 5.99325942993164e+00 384 
8.61845605468750e+03 6.56333740234375e+03 6.06939649581909e+00 385 
8.48834863281250e+03 6.61127929687500e+03 6.13084650039673e+00 386 
6.88388769531250e+03 7.18776806640625e+03 5.98824262619019e+00 387 
8.71300000000000e+03 7.76407568359375e+03 6.55917978286743e+00 388 
6.65120654296875e+03 1.75846740722656e+03 9.90177536010742e+00 389 
6.46592626953125e+03 1.88914831542969e+03 9.43249607086182e+00 390 
8.02742041015625e+03 2.17181542968750e+03 8.40249538421631e+00 391 
4.21509130859375e+03 4.22032177734375e+03 9.24926567077637e+00 392 
8.41858984375000e+03 6.73501416015625e+03 8.10363292694092e+00 393 
8.56934765625000e+03 6.77247607421875e+03 9.10000228881836e+00 394 
4.86000732421875e+02 7.66268212890625e+03 5.52144765853882e+00 395 
2.46985620117188e+03 8.07520410156250e+03 3.96695566177368e+00 396 
7.40247705078125e+03 2.78450439453125e+02 6.16487979888916e+00 397 
5.93845947265625e+03 1.17424157714844e+03 6.32583665847778e+00 398 
3.07366870117188e+03 1.42768457031250e+03 6.15888309478760e+00 399 
7.28434814453125e+03 1.50853393554688e+03 5.75568389892578e+00 400 
6.29118066406250e+03 1.85908569335938e+03 6.12761116027832e+00 401 
6.60136474609375e+03 2.78260009765625e+03 5.90946102142334e+00 402 
5.47696728515625e+03 3.33045751953125e+03 5.93895721435547e+00 403 
2.38574291992188e+03 3.51754785156250e+03 6.60930585861206e+00 404 
1.27562805175781e+03 4.08109545898438e+03 6.54027700424194e+00 405 
7.40541894531250e+03 4.31454003906250e+03 5.78389501571655e+00 406 
7.44212890625000e+03 6.67127539062500e+03 6.66966056823730e+00 407 
3.79494726562500e+03 1.75265899658203e+02 4.51098728179932e+00 408 
3.12458032226562e+03 2.86330871582031e+02 4.29645299911499e+00 409 
6.91672705078125e+03 4.77186981201172e+02 5.13031148910522e+00 410 
7.08706542968750e+03 5.75252746582031e+02 5.29294490814209e+00 411 
7.74903320312500e+03 6.51107788085938e+02 5.75640249252319e+00 412 
5.65995654296875e+03 1.11154931640625e+03 5.25043535232544e+00 413 
7.58378466796875e+03 1.41582971191406e+03 4.54749059677124e+00 414 
5.81312744140625e+03 1.47927209472656e+03 5.52885437011719e+00 415 
7.25875292968750e+03 1.58903601074219e+03 5.37391042709351e+00 416 
7.28049121093750e+03 1.59063842773438e+03 5.62414073944092e+00 417 
6.59453759765625e+03 1.93914025878906e+03 4.96118402481079e+00 418 
5.02525048828125e+03 1.96840185546875e+03 3.91491842269897e+00 419 
8.50583886718750e+03 2.30783276367188e+03 5.63618278503418e+00 420 
3.13641552734375e+03 2.79159326171875e+03 5.65432643890381e+00 421 
8.70060058593750e+03 3.15704980468750e+03 5.63079357147217e+00 422 
5.47712890625000e+03 3.48019750976562e+03 4.81391191482544e+00 423 
6.65852392578125e+03 4.22707763671875e+03 5.11978530883789e+00 424 
8.59884960937500e+03 4.63625341796875e+03 4.08904838562012e+00 425 
7.77946582031250e+03 5.54422509765625e+03 4.88819122314453e+00 426 
4.22057470703125e+03 5.68948291015625e+03 4.17739343643188e+00 427 
8.44141784667969e+02 6.49184912109375e+03 5.60597562789917e+00 428 
6.25514257812500e+03 6.71511328125000e+03 5.47467231750488e+00 429 
6.43894042968750e+03 6.79855126953125e+03 4.96954679489136e+00 430 
6.48765185546875e+03 7.26430029296875e+03 4.19670248031616e+00 431 
6.49243505859375e+03 7.28092480468750e+03 4.26064491271973e+00 432 
7.27700292968750e+03 7.45131152343750e+03 5.41879701614380e+00 433 
5.75120996093750e+03 7.69188964843750e+03 4.38571548461914e+00 434 
6.48479052734375e+03 1.02601767578125e+04 3.74906039237976e+00 435 
7.42076806640625e+03 1.16381546020508e+02 6.99172973632812e+00 436 
8.02846484375000e+03 1.15671890258789e+02 6.80332469940186e+00 437 
8.23185449218750e+03 2.02165588378906e+02 5.83710241317749e+00 438 
6.88420458984375e+03 4.88549316406250e+02 6.05897617340088e+00 439 
7.38951416015625e+03 5.69217590332031e+02 6.35230159759521e+00 440 
1.09422302246094e+03 7.59888732910156e+02 6.71773624420166e+00 441 
8.46846484375000e+03 1.23293896484375e+03 6.23220396041870e+00 442 
8.46588183593750e+03 1.28229650878906e+03 6.54100894927979e+00 443 
5.97918750000000e+03 1.44055749511719e+03 5.99782991409302e+00 444 
7.61006005859375e+03 1.44003369140625e+03 6.42234182357788e+00 445 
7.59142187500000e+03 1.80650073242188e+03 6.64555788040161e+00 446 
7.52512158203125e+03 1.99682739257812e+03 6.74808692932129e+00 447 
4.21349267578125e+03 2.22718481445312e+03 6.28292512893677e+00 448 
8.40333984375000e+03 2.28063134765625e+03 6.09777498245239e+00 449 
8.43203613281250e+03 2.60050634765625e+03 6.54157161712646e+00 450 
5.82125781250000e+03 3.08288330078125e+03 7.06970310211182e+00 451 
8.64981250000000e+03 3.13566088867188e+03 6.52383756637573e+00 452 
5.02918310546875e+03 1.90054580688477e+02 8.70178794860840e+00 453 
5.07234619140625e+03 1.40329150390625e+03 8.73315429687500e+00 454 
5.80294531250000e+03 2.73754180908203e+02 1.41738214492798e+01 455 
3.44509570312500e+03 6.64162792968750e+03 1.28718633651733e+01 456 
7.88388964843750e+03 1.32112353515625e+03 7.90804529190063e+00 457 
6.36395800781250e+03 6.47285156250000e+03 9.08424758911133e+00 458 
2.62346166992188e+03 2.80076708984375e+03 1.17311096191406e+01 459 
7.44713867187500e+03 3.17807739257812e+03 1.94137172698975e+01 460 
2.18747949218750e+03 1.32316687011719e+03 2.41712379455566e+01 461 
3.90681176757812e+03 8.41062744140625e+02 3.18962879180908e+01 462 
7.89217187500000e+03 1.31306176757812e+03 4.20242071151733e+00 463 
7.26384716796875e+03 6.99116943359375e+03 4.05626678466797e+00 464 
5.00965136718750e+03 8.13207421875000e+03 4.49562549591064e+00 465 
4.95101757812500e+03 3.17062011718750e+02 6.82430696487427e+00 466 
8.30634570312500e+03 4.88397119140625e+03 6.51561498641968e+00 467 
7.09025634765625e+03 5.65070617675781e+02 3.86944222450256e+00 468 
5.81393505859375e+03 7.66075073242188e+02 5.51265478134155e+00 469 
6.34525537109375e+03 6.39661035156250e+03 6.06642436981201e+00 470 
6.67473828125000e+03 1.30233728027344e+03 4.14532089233398e+00 471 
7.80966015625000e+03 1.49266577148438e+03 5.38950538635254e+00 472 
7.87579589843750e+03 1.51471569824219e+03 1.19604291915894e+01 473 
6.02691308593750e+03 1.22088024902344e+03 6.45897054672241e+00 474 
8.16639746093750e+03 3.79474792480469e+02 5.95355176925659e+00 475 
6.46711328125000e+03 1.88535424804688e+03 9.71323299407959e+00 476 
3.64430224609375e+03 2.48291333007812e+03 7.99906444549561e+00 477 
3.14007226562500e+03 5.02119628906250e+03 9.63038539886475e+00 478 
3.46022021484375e+03 6.61183105468750e+03 1.25903854370117e+01 479 
6.09231640625000e+03 2.36424087524414e+02 7.50220441818237e+00 480 
7.39896728515625e+03 3.92145568847656e+02 7.17118740081787e+00 481 
6.67652294921875e+03 1.28711108398438e+03 8.74482250213623e+00 482 
3.36524389648438e+03 2.08629296875000e+03 9.04297256469727e+00 483 
7.79597314453125e+03 6.29469384765625e+03 1.35722045898438e+01 484 
7.00788281250000e+03 1.18374000549316e+02 9.14222621917725e+00 485 
7.08815576171875e+03 6.20880664062500e+03 1.01788759231567e+01 486 
7.60607519531250e+03 5.38877783203125e+03 1.24211683273315e+01 487 
5.34296826171875e+03 7.39910498046875e+03 1.56347436904907e+01 488 
8.20776367187500e+03 1.30381994628906e+03 2.62555580139160e+01 489 
7.72575000000000e+03 5.59631494140625e+03 1.53968782424927e+01 490 
6.27426953125000e+03 6.10448388671875e+03 6.21099395751953e+01 491 
6.79063085937500e+03 6.33770263671875e+03 1.25895401000977e+02 492 
6.84237988281250e+03 4.50849548339844e+02 4.41127538681030e+00 493 
6.27467773437500e+03 9.91771057128906e+02 4.34391260147095e+00 494 
6.44909716796875e+03 1.44272460937500e+03 3.65523719787598e+00 495 
8.01398046875000e+03 2.19341625976562e+03 3.88834786415100e+00 496 
3.78780639648438e+03 2.94149902343750e+03 4.57785034179688e+00 497 
3.19221850585938e+03 3.32777172851562e+03 5.20587444305420e+00 498 
6.27206933593750e+03 4.26506835937500e+03 5.82607269287109e+00 499 
6.82375244140625e+03 4.95628808593750e+03 5.36351537704468e+00 500 
5.43133935546875e+03 4.97347216796875e+03 3.73301243782043e+00 501 
7.03607128906250e+03 5.36463281250000e+03 5.63392877578735e+00 502 
5.68405468750000e+03 7.66752148437500e+03 3.95428061485291e+00 503 
8.51016210937500e+03 3.65011322021484e+02 6.50495004653931e+00 504 
8.59948730468750e+03 6.55295410156250e+02 6.20183706283569e+00 505 
2.72819653320312e+03 1.05206286621094e+03 6.04973554611206e+00 506 
6.31295361328125e+03 4.66501123046875e+03 5.77561330795288e+00 507 
5.64079541015625e+03 7.70693798828125e+03 7.29711246490479e+00 508 
3.31026391601562e+03 8.30442968750000e+03 6.68873071670532e+00 509 
4.29126855468750e+03 7.03787002563477e+01 4.31653642654419e+00 510 
8.33960058593750e+03 1.80842407226562e+02 5.32499837875366e+00 511 
6.30738623046875e+03 3.11151763916016e+02 5.45475006103516e+00 512 
5.81879589843750e+03 4.67685180664062e+02 5.04041290283203e+00 513 
7.58439013671875e+03 1.67167175292969e+03 5.42231369018555e+00 514 
5.86575585937500e+03 2.73050195312500e+03 4.62138080596924e+00 515 
2.60504833984375e+03 2.90482641601562e+03 4.67652416229248e+00 516 
8.75637011718750e+03 3.27777050781250e+03 5.05933380126953e+00 517 
8.64176367187500e+03 3.91877270507812e+03 4.50737714767456e+00 518 
3.79419995117188e+03 4.72572216796875e+03 4.02531576156616e+00 519 
6.81618261718750e+03 4.96715673828125e+03 5.50842761993408e+00 520 
2.92037426757812e+03 4.67611035156250e+03 5.84257650375366e+00 521 
5.09443408203125e+03 8.15875781250000e+03 6.89473390579224e+00 522 
7.39745703125000e+03 8.75057983398438e+01 4.34057855606079e+00 523 
3.02367163085938e+03 1.04353588867188e+03 4.10055923461914e+00 524 
5.20600097656250e+03 3.20175024414062e+03 3.83428788185120e+00 525 
5.44500292968750e+03 3.31899951171875e+03 3.83197236061096e+00 526 
6.67050146484375e+03 4.24407910156250e+03 4.98928976058960e+00 527 
2.99158251953125e+03 4.46962939453125e+03 5.27736616134644e+00 528 
7.46197851562500e+03 5.20146435546875e+03 3.59490275382996e+00 529 
4.83312158203125e+03 6.56369873046875e+03 5.21578073501587e+00 530 
8.79154003906250e+03 6.85674072265625e+02 6.40867280960083e+00 531 
6.20859277343750e+03 2.37259277343750e+03 6.36673879623413e+00 532 
8.63125488281250e+03 2.41971459960938e+03 6.45518875122070e+00 533 
8.19518359375000e+03 3.07827758789062e+03 5.98849868774414e+00 534 
4.32122119140625e+03 3.64219091796875e+03 7.26088953018188e+00 535 
7.97234179687500e+03 6.57468066406250e+03 9.77334594726562e+00 536 
3.06095385742188e+03 7.62713378906250e+03 9.51759815216064e+00 537 
4.58793994140625e+03 1.22500085449219e+03 1.22707424163818e+01 538 
3.41713574218750e+03 4.89919482421875e+03 1.21617889404297e+01 539 
7.95101708984375e+03 7.47218212890625e+03 4.15163373947144e+00 540 
7.09382080078125e+03 5.51290344238281e+02 6.35655069351196e+00 541 
6.53722900390625e+03 1.09200451660156e+03 6.67311906814575e+00 542 
5.81868945312500e+03 1.74006555175781e+03 5.80304145812988e+00 543 
8.45202539062500e+03 2.57588085937500e+03 7.10228204727173e+00 544 
3.35908154296875e+03 3.34295312500000e+03 6.30618619918823e+00 545 
3.65673950195312e+03 3.34284619140625e+03 6.27920436859131e+00 546 
5.01342138671875e+03 8.11987402343750e+03 5.80851173400879e+00 547 
7.74627099609375e+03 1.65543627929688e+03 4.18561792373657e+00 548 
3.33495971679688e+03 2.04824755859375e+03 4.04547166824341e+00 549 
8.77803906250000e+03 2.25524072265625e+03 3.48532247543335e+00 550 
3.81056787109375e+03 3.07825219726562e+03 5.08927679061890e+00 551 
8.76114257812500e+03 6.97374218750000e+03 4.19019269943237e+00 552 
7.14224218750000e+03 7.80089355468750e+03 4.43604087829590e+00 553 
6.10653027343750e+03 8.08590039062500e+03 4.24781131744385e+00 554 
8.31560058593750e+03 2.03557983398438e+02 7.11997509002686e+00 555 
6.15210595703125e+03 2.47803802490234e+02 6.17907619476318e+00 556 
6.64651904296875e+03 4.09381195068359e+02 6.95608854293823e+00 557 
4.05390893554688e+03 1.63469763183594e+03 6.05601930618286e+00 558 
6.60039013671875e+03 1.91570446777344e+03 6.11517763137817e+00 559 
3.62756762695312e+03 2.54041113281250e+03 6.28983116149902e+00 560 
2.58480419921875e+03 2.92408251953125e+03 6.60264062881470e+00 561 
8.75146191406250e+03 3.29819580078125e+03 5.80040454864502e+00 562 
2.81661346435547e+02 3.14704418945312e+03 7.10545253753662e+00 563 
7.83028271484375e+03 2.04949633789062e+03 4.02783250808716e+00 564 
8.09439892578125e+03 3.36358374023438e+03 7.58416080474854e+00 565 
5.41063183593750e+03 3.31271923828125e+03 4.73083972930908e+00 566 
3.72135083007812e+03 9.18048217773438e+02 4.12908458709717e+00 567 
1.06066613769531e+03 6.55495654296875e+03 4.14931392669678e+00 568 
7.54027294921875e+03 9.26492675781250e+03 3.77355957031250e+00 569 
