ply
format ascii 1.0
element vertex 692
property double x
property double y
property double z
property short id
end_header
6.05427742004395e-01 6.21571540832520e-01 7.41010904312134e+00 16 
5.59750974178314e-01 6.12729668617249e-01 7.41026353836060e+00 17 
-5.55992484092712e-01 1.82888329029083e-01 7.36810493469238e+00 18 
-5.68043410778046e-01 7.17342197895050e-02 7.42076492309570e+00 19 
-4.69531625509262e-01 -1.75588116049767e-01 7.38170051574707e+00 20 
1.09809674322605e-02 -6.00536346435547e-01 7.32067012786865e+00 21 
-5.50797879695892e-01 1.85014858841896e-01 7.36899900436401e+00 22 
1.05243289470673e+00 -2.97968596220016e-01 7.33636569976807e+00 23 
-4.27775472402573e-01 -7.58361995220184e-01 7.38146400451660e+00 24 
2.23388634622097e-02 5.38843154907227e-01 7.35303878784180e+00 27 
8.47015321254730e-01 -1.57578930258751e-01 7.42782545089722e+00 28 
3.88339519500732e-01 -9.32591930031776e-02 7.33467483520508e+00 30 
1.25924170017242e+00 -8.06665182113647e-01 7.41731882095337e+00 31 
7.01976835727692e-01 -5.64746141433716e-01 7.41409635543823e+00 32 
-3.38425368070602e-01 -1.81432232260704e-01 7.42090797424316e+00 33 
8.19956660270691e-01 -1.67030289769173e-01 7.42279577255249e+00 34 
-2.68082946538925e-01 -3.13607752323151e-01 7.36033010482788e+00 35 
1.13715958595276e+00 -2.48106181621552e-01 7.34085750579834e+00 36 
8.35325345396996e-02 -1.34700393676758e+00 7.37015008926392e+00 38 
-1.67637825012207e-01 4.54398155212402e-01 7.41885852813721e+00 39 
-5.44612184166908e-02 -3.05146444588900e-04 7.37512493133545e+00 40 
-2.56524413824081e-01 -1.68414980173111e-01 7.41007280349731e+00 41 
-3.06426063179970e-02 2.88046873174608e-03 7.37527847290039e+00 43 
4.17816102504730e-01 -1.16803094744682e-01 7.33188486099243e+00 44 
3.34693729877472e-01 -7.80242443084717e-01 7.40401458740234e+00 45 
-1.35891556739807e-01 -2.32426548004150e+00 7.43201208114624e+00 46 
7.30580627918243e-01 2.94376045465469e-01 7.42624044418335e+00 47 
1.51908028125763e+00 -2.03452682495117e+00 7.41005945205688e+00 48 
-1.52452543377876e-01 -1.04807746410370e+00 7.42047071456909e+00 50 
1.51823091506958e+00 -3.54083865880966e-01 7.33589076995850e+00 53 
1.32952415943146e+00 -7.46986031532288e-01 7.41712427139282e+00 54 
-1.14046439528465e-01 -2.08182875066996e-02 7.37517118453979e+00 57 
-5.21640062332153e-01 -9.19867634773254e-01 7.42527055740356e+00 59 
1.32862412929535e+00 -2.16926670074463e+00 7.28741979598999e+00 60 
-1.71098232269287e-01 4.52838540077209e-01 7.41920137405396e+00 61 
1.07513576745987e-01 2.83186554908752e-01 7.33295726776123e+00 62 
8.45216885209084e-02 -1.34963119029999e+00 7.37004137039185e+00 65 
1.08562357723713e-01 2.80775189399719e-01 7.33291578292847e+00 66 
-3.39194148778915e-01 -1.79255157709122e-01 7.42074918746948e+00 67 
8.40881049633026e-01 5.61914741992950e-01 7.34166145324707e+00 70 
-1.71091169118881e-01 2.42767080664635e-01 7.42254638671875e+00 71 
9.22622233629227e-02 -2.27401328086853e+00 7.39045619964600e+00 72 
-5.29943585395813e-01 -5.50363481044769e-01 7.42023372650146e+00 74 
-1.34957417845726e-01 -2.32278156280518e+00 7.43375205993652e+00 75 
6.03561587631702e-02 3.04451555013657e-01 7.33809471130371e+00 77 
1.40475189685822e+00 2.77657836675644e-01 7.34038209915161e+00 78 
1.28351187705994e+00 -1.62711620330811e+00 7.40994596481323e+00 79 
-2.84119576215744e-01 -2.11224555969238e+00 7.36395120620728e+00 80 
8.06564986705780e-01 -6.76871910691261e-02 7.42804384231567e+00 81 
-8.44051390886307e-02 1.65367305278778e-01 7.43058061599731e+00 82 
7.66903519630432e-01 2.61073615401983e-02 7.43100976943970e+00 83 
4.29874271154404e-01 -1.71643650531769e+00 7.42180776596069e+00 84 
8.38501632213593e-01 -1.57241195440292e-01 7.42471694946289e+00 86 
4.11760389804840e-01 -1.72894132137299e+00 7.41946077346802e+00 87 
9.16667819023132e-01 -2.02518939971924e+00 7.34336853027344e+00 90 
1.04337966442108e+00 -1.77319240570068e+00 7.32215070724487e+00 91 
-3.03405821323395e-01 -1.08190059661865e-01 7.42119407653809e+00 92 
1.18513178825378e+00 1.41227811574936e-01 7.41532564163208e+00 93 
1.29793155193329e+00 -1.93346583843231e+00 7.41076326370239e+00 94 
1.49301099777222e+00 -4.88955378532410e-01 7.33453035354614e+00 96 
1.11453711986542e+00 -5.98390817642212e-01 7.40951871871948e+00 97 
9.01238024234772e-02 -2.27093267440796e+00 7.39053916931152e+00 99 
-5.59045910835266e-01 -2.18656206130981e+00 7.34031629562378e+00 100 
4.01599526405334e-01 2.68215030431747e-01 7.42277860641479e+00 101 
-4.38715249300003e-01 7.51841142773628e-02 7.37821388244629e+00 102 
-3.23419660329819e-01 -5.02936542034149e-01 7.42658519744873e+00 103 
1.04625773429871e+00 -1.78758716583252e+00 7.32302141189575e+00 105 
7.54011809825897e-01 -1.96560764312744e+00 7.27944850921631e+00 106 
6.73270523548126e-02 2.79936611652374e-01 7.33686351776123e+00 107 
5.64895868301392e-01 3.27709406614304e-01 7.34207248687744e+00 109 
7.42051959037781e-01 -7.90867805480957e-01 7.33264064788818e+00 111 
7.70209014415741e-01 -8.54421854019165e-01 7.35277223587036e+00 112 
8.06126296520233e-01 -1.53723502159119e+00 7.41495847702026e+00 113 
8.97498428821564e-01 4.47690039873123e-01 7.34520578384399e+00 115 
1.45389556884766e+00 -5.75151219964027e-02 7.41017389297485e+00 116 
5.42142271995544e-01 -1.48298397660255e-01 7.41855621337891e+00 117 
2.25489318370819e-01 -1.24307250976562e+00 7.42563247680664e+00 118 
3.79950076341629e-01 4.86053705215454e-01 7.35998201370239e+00 121 
4.06041562557220e-01 1.66793689131737e-01 7.42110300064087e+00 123 
2.69012540578842e-01 -2.81852543354034e-01 7.33456516265869e+00 124 
-5.73124766349792e-01 -9.18529510498047e-01 7.42402648925781e+00 125 
-3.25725972652435e-02 -1.28385806083679e+00 7.41287422180176e+00 126 
-5.99394261837006e-01 -1.73440754413605e+00 7.42877435684204e+00 129 
-6.76685944199562e-02 -5.38184344768524e-01 7.35253858566284e+00 132 
1.18883788585663e+00 -8.23706030845642e-01 7.41459798812866e+00 134 
7.75619745254517e-01 -1.53902876377106e+00 7.41635370254517e+00 137 
-1.95243686437607e-01 -1.62753701210022e+00 7.34172105789185e+00 138 
6.44507944583893e-01 -1.98612880706787e+00 7.41328287124634e+00 139 
3.69361996650696e-01 -1.82091698050499e-01 7.33438014984131e+00 140 
1.11752057075500e+00 -5.22286236286163e-01 7.41554164886475e+00 141 
9.63129639625549e-01 -1.61712622642517e+00 7.43478107452393e+00 142 
1.31953036785126e+00 4.54717487096786e-01 7.35521793365479e+00 143 
1.10095238685608e+00 3.97263616323471e-01 7.41410160064697e+00 144 
3.89971546828747e-02 -5.16365878283978e-02 7.42230558395386e+00 147 
-1.07509166002274e-01 -2.35667973756790e-01 7.33385896682739e+00 148 
8.82686674594879e-01 -3.70185762643814e-01 7.33713054656982e+00 149 
4.00978147983551e-01 -5.82794427871704e-01 7.34135437011719e+00 150 
1.24175524711609e+00 -1.07613539695740e+00 7.41463088989258e+00 151 
1.52671694755554e+00 -1.16482281684875e+00 7.41114187240601e+00 152 
1.53439521789551e+00 -1.19329655170441e+00 7.41100025177002e+00 153 
-5.86020112037659e-01 -1.59220921993256e+00 7.40253400802612e+00 154 
2.00590535998344e-01 -1.90250301361084e+00 7.42878675460815e+00 155 
-1.58600628376007e-01 -2.12804508209229e+00 7.42489719390869e+00 156 
2.58640140295029e-01 5.19865036010742e-01 7.42382574081421e+00 158 
-3.05162489414215e-01 4.28552687168121e-01 7.40979051589966e+00 159 
-3.14242571592331e-01 4.20608133077621e-01 7.40527343750000e+00 160 
1.30932915210724e+00 4.46270316839218e-01 7.36238241195679e+00 161 
9.92399811744690e-01 1.79371789097786e-01 7.34065532684326e+00 162 
1.34846711158752e+00 -2.17769108712673e-02 7.33003711700439e+00 163 
4.04044568538666e-01 -4.25913989543915e-01 7.35196542739868e+00 164 
-6.19144320487976e-01 -8.73207569122314e-01 7.42461299896240e+00 165 
1.34548330307007e+00 -7.49817132949829e-01 7.41564607620239e+00 166 
1.31381916999817e+00 -1.07421767711639e+00 7.41335725784302e+00 167 
1.32290542125702e+00 -1.08500230312347e+00 7.41316318511963e+00 168 
1.09431958198547e+00 -1.53639781475067e+00 7.43008804321289e+00 169 
-1.72746106982231e-01 -2.00257921218872e+00 7.42701578140259e+00 170 
-2.27167636156082e-01 3.09775862842798e-02 7.32976341247559e+00 172 
1.34229636192322e+00 -9.02636721730232e-02 7.34812593460083e+00 173 
1.45025908946991e+00 -1.93243160843849e-01 7.33062171936035e+00 174 
1.30482745170593e+00 -1.85388112068176e+00 7.32791376113892e+00 175 
-6.23955309391022e-01 3.00799131393433e-01 7.41135692596436e+00 176 
4.21152412891388e-01 2.88720130920410e-01 7.41831159591675e+00 177 
2.72076517343521e-01 -2.72264450788498e-01 7.33474683761597e+00 178 
1.40442669391632e+00 -2.08599850535393e-01 7.32911729812622e+00 179 
2.83209621906281e-01 -2.96286195516586e-01 7.33458328247070e+00 180 
-4.30009096860886e-01 -5.95574796199799e-01 7.41860532760620e+00 181 
-1.56482204794884e-01 -1.04733574390411e+00 7.42059230804443e+00 182 
1.94009132683277e-02 -1.57845556735992e+00 7.41877174377441e+00 183 
5.42605519294739e-01 -1.92504513263702e+00 7.30573940277100e+00 184 
-1.73839449882507e-01 -1.99402868747711e+00 7.42719268798828e+00 185 
-1.68197527527809e-01 -2.13583660125732e+00 7.42484807968140e+00 186 
-1.70585930347443e-01 -2.15700268745422e+00 7.42440557479858e+00 187 
9.87967073917389e-01 1.19426295161247e-01 7.42160654067993e+00 189 
2.44705453515053e-01 5.29321014881134e-01 7.41919660568237e+00 191 
9.50002014636993e-01 3.13973844051361e-01 7.34384965896606e+00 192 
5.23501038551331e-01 -3.42585951089859e-01 7.36165618896484e+00 193 
2.08686813712120e-01 -8.96707594394684e-01 7.39324665069580e+00 194 
6.45383596420288e-01 -9.81448233127594e-01 7.32806444168091e+00 195 
1.16938269138336e+00 -1.70825457572937e+00 7.33080005645752e+00 198 
3.87715399265289e-01 2.72058874368668e-01 7.42158460617065e+00 200 
-4.63683366775513e-01 -1.02390158176422e+00 7.42313671112061e+00 202 
-4.98901724815369e-01 -1.02883148193359e+00 7.40159177780151e+00 203 
5.88762164115906e-01 6.54278039932251e-01 7.40985107421875e+00 207 
1.13662354648113e-01 2.61441677808762e-01 7.34836816787720e+00 208 
7.56993114948273e-01 -4.52715419232845e-02 7.37376117706299e+00 210 
-3.51321756839752e-01 -1.04527139663696e+00 7.38968753814697e+00 213 
6.45803987979889e-01 -1.12670373916626e+00 7.32304525375366e+00 214 
-3.25769573450089e-01 -1.61207628250122e+00 7.42979764938354e+00 215 
1.09174144268036e+00 -2.20547151565552e+00 7.31980180740356e+00 217 
3.32988590002060e-01 -1.20138823986053e+00 7.34660005569458e+00 218 
-7.52089470624924e-02 -1.65614962577820e+00 7.39692020416260e+00 219 
-1.14540755748749e-01 1.35970143601298e-02 7.42352342605591e+00 223 
5.87498426437378e-01 -8.75525772571564e-01 7.33731460571289e+00 226 
2.84969061613083e-02 -1.47413992881775e+00 7.40614891052246e+00 227 
1.34077751636505e+00 -7.47997879981995e-01 7.41549491882324e+00 228 
1.35496485233307e+00 -7.53101706504822e-01 7.41554927825928e+00 229 
9.16508853435516e-01 -1.08347940444946e+00 7.41322612762451e+00 230 
9.65162515640259e-01 -1.61737239360809e+00 7.43492364883423e+00 232 
1.40750908851624e+00 2.81808108091354e-01 7.34041595458984e+00 233 
-5.43222069740295e-01 -2.11201477050781e+00 7.35852003097534e+00 234 
1.03475069999695e+00 -1.82412350177765e+00 7.32554054260254e+00 235 
-6.37877762317657e-01 5.62798500061035e-01 7.42527770996094e+00 236 
6.13473534584045e-01 -3.59020501375198e-01 7.41863965988159e+00 237 
9.81825470924377e-01 6.29007220268250e-01 7.41923046112061e+00 239 
-5.35955727100372e-01 -5.22987544536591e-01 7.42184829711914e+00 240 
3.54591876268387e-01 -1.51978433132172e+00 7.36617231369019e+00 241 
1.20602890849113e-01 -1.96725034713745e+00 7.42088794708252e+00 242 
1.20072221755981e+00 -1.97622096538544e+00 7.41315603256226e+00 243 
9.38991755247116e-02 -2.27680230140686e+00 7.39135599136353e+00 244 
1.12486386299133e+00 -7.47033774852753e-01 7.41287279129028e+00 245 
1.40985774993896e+00 2.76796817779541e-01 7.34036874771118e+00 246 
6.94773197174072e-01 -5.40113747119904e-01 7.41416025161743e+00 247 
7.00274407863617e-01 -5.50291419029236e-01 7.41345405578613e+00 248 
3.74593734741211e-01 -1.59031724929810e+00 7.35580301284790e+00 249 
1.38959074020386e+00 -1.80838227272034e+00 7.32944583892822e+00 250 
1.26179802417755e+00 6.49218857288361e-01 7.33148002624512e+00 251 
2.37465724349022e-01 -1.44210982322693e+00 7.42412281036377e+00 252 
2.18405157327652e-01 -2.20429986715317e-01 7.41578483581543e+00 253 
9.42350149154663e-01 -5.95375299453735e-01 7.41703128814697e+00 255 
6.01414084434509e-01 -9.06895875930786e-01 7.33713293075562e+00 256 
3.69963020086288e-01 -1.18022942543030e+00 7.34039878845215e+00 257 
6.97359442710876e-01 -1.25459110736847e+00 7.31926822662354e+00 258 
1.46455144882202e+00 -1.29531490802765e+00 7.40999889373779e+00 259 
9.75586473941803e-01 2.60177761316299e-01 7.34495306015015e+00 262 
3.31965118646622e-01 -7.79843151569366e-01 7.40358781814575e+00 263 
6.73585355281830e-01 -1.12791085243225e+00 7.32324409484863e+00 264 
-3.23727250099182e-01 -1.61124873161316e+00 7.43005418777466e+00 266 
-2.75341987609863e-01 -1.70993077754974e+00 7.43011522293091e+00 267 
5.30857563018799e-01 -1.93653333187103e+00 7.30588960647583e+00 268 
1.04876387119293e+00 -2.20790600776672e+00 7.31836462020874e+00 269 
9.39570546150208e-01 -5.96466243267059e-01 7.41704177856445e+00 272 
-4.77736026048660e-01 -1.79036986827850e+00 7.42423534393311e+00 273 
2.74758636951447e-01 2.95417368412018e-01 7.42345523834229e+00 275 
6.36930525302887e-01 1.05516113340855e-01 7.35627508163452e+00 276 
4.44579362869263e-01 -6.71719133853912e-01 7.31590700149536e+00 277 
6.75231158733368e-01 -1.13064932823181e+00 7.32348728179932e+00 278 
1.74633175134659e-01 -1.27500951290131e+00 7.42446756362915e+00 279 
1.39991730451584e-01 -2.18758344650269e+00 7.39771223068237e+00 281 
2.09189355373383e-02 -1.36208832263947e+00 7.39915847778320e+00 286 
8.24792146682739e-01 -8.71795833110809e-01 7.41569805145264e+00 287 
1.46142601966858e+00 -1.29253840446472e+00 7.41036653518677e+00 288 
-6.63923472166061e-02 -1.48802030086517e+00 7.35126066207886e+00 289 
1.41758215427399e+00 2.48285010457039e-01 7.34504508972168e+00 290 
8.75647842884064e-01 -5.25867938995361e-02 7.42243146896362e+00 291 
3.16591978073120e-01 -3.04590612649918e-01 7.33482456207275e+00 292 
5.99308550357819e-01 -8.90797495841980e-01 7.33610677719116e+00 293 
-6.27954959869385e-01 -1.56913828849792e+00 7.42851638793945e+00 295 
5.40129989385605e-02 5.53442120552063e-01 7.35606813430786e+00 297 
-6.47194266319275e-01 3.57213467359543e-01 7.41151762008667e+00 298 
9.25331771373749e-01 3.60067218542099e-01 7.33821153640747e+00 299 
-5.75032591819763e-01 1.72515779733658e-01 7.36721801757812e+00 300 
3.51025238633156e-02 -4.41354066133499e-02 7.42235422134399e+00 301 
5.02961218357086e-01 -4.00794982910156e-01 7.36177444458008e+00 302 
-6.23396873474121e-01 -8.69901597499847e-01 7.42473983764648e+00 303 
-5.80368041992188e-01 -1.38612902164459e+00 7.42328262329102e+00 304 
5.20994625985622e-02 -1.64622414112091e+00 7.42209196090698e+00 305 
-5.28726696968079e-01 -2.00179529190063e+00 7.42900705337524e+00 307 
-3.69815886020660e-01 -2.24823570251465e+00 7.42700433731079e+00 308 
-1.99706479907036e-02 5.78496515750885e-01 7.33677959442139e+00 309 
1.36299673467875e-02 -6.02240502834320e-01 7.32076215744019e+00 310 
1.08952808380127e+00 -6.14558100700378e-01 7.40839242935181e+00 311 
2.93470859527588e-01 -7.30225384235382e-01 7.31378507614136e+00 312 
-1.34223237633705e-01 -8.68843257427216e-01 7.40673160552979e+00 313 
-5.51473021507263e-01 -2.10349416732788e+00 7.36048460006714e+00 314 
8.46119344234467e-01 5.59964835643768e-01 7.34114933013916e+00 315 
1.02955174446106e+00 1.74600765109062e-01 7.34895324707031e+00 317 
-4.59865182638168e-01 -6.00341916084290e-01 7.42105245590210e+00 318 
1.32609009742737e+00 -1.08223938941956e+00 7.41345787048340e+00 319 
6.72736167907715e-01 -1.20048880577087e+00 7.31937694549561e+00 320 
1.53808498382568e+00 -1.53810548782349e+00 7.41344356536865e+00 321 
1.58072721958160e+00 -2.15931129455566e+00 7.41110467910767e+00 322 
6.99251890182495e-01 -5.65425932407379e-01 7.41495704650879e+00 323 
-3.39110434055328e-01 -3.70772890746593e-02 7.42183351516724e+00 324 
1.44174540042877e+00 -4.93703067302704e-01 7.40980625152588e+00 325 
1.14854834973812e-01 -2.21613836288452e+00 7.39797782897949e+00 326 
8.09263408184052e-01 -2.20671916007996e+00 7.41788339614868e+00 327 
1.14364790916443e+00 -2.21988344192505e+00 7.32295131683350e+00 328 
9.62191671133041e-02 -2.22675633430481e+00 7.39838886260986e+00 331 
1.10503113269806e+00 -2.16747784614563e+00 7.32545232772827e+00 332 
-1.05795718729496e-01 -1.75709640979767e+00 7.42381143569946e+00 333 
-1.37300640344620e-01 -1.72037112712860e+00 7.43004703521729e+00 335 
9.74412381649017e-01 -1.05617567896843e-01 7.42340135574341e+00 336 
5.18072366714478e-01 -2.00399041175842e+00 7.30761480331421e+00 337 
8.45911502838135e-01 -1.88530099391937e+00 7.30480480194092e+00 338 
5.35341262817383e-01 -1.92765033245087e+00 7.30745697021484e+00 339 
-2.42820233106613e-01 -2.71826237440109e-01 7.35667991638184e+00 340 
1.46346473693848e+00 -1.71837449073792e+00 7.31342124938965e+00 341 
4.78335231542587e-01 -1.70038688182831e+00 7.41330671310425e+00 342 
7.49218761920929e-01 3.06847393512726e-01 7.41318130493164e+00 343 
3.80651295185089e-01 -1.73553621768951e+00 7.41898107528687e+00 344 
8.28449726104736e-01 -1.23308706283569e+00 7.32036113739014e+00 345 
6.37459039688110e-01 -1.99026525020599e+00 7.41365528106689e+00 346 
8.49813640117645e-01 5.65288543701172e-01 7.34333181381226e+00 348 
1.28441154956818e+00 5.74485301971436e-01 7.33145141601562e+00 349 
6.75258994102478e-01 2.45774731040001e-01 7.42822217941284e+00 350 
2.87050127983093e-01 -3.08715045452118e-01 7.33406496047974e+00 351 
-7.14635625481606e-02 -4.83530431985855e-01 7.34650421142578e+00 352 
-1.61990866065025e-01 -9.51090335845947e-01 7.41580390930176e+00 353 
1.48915183544159e+00 -1.26855146884918e+00 7.41120624542236e+00 354 
-4.06875312328339e-01 -1.62633204460144e+00 7.35924530029297e+00 356 
6.33151352405548e-01 -1.99012482166290e+00 7.41331911087036e+00 357 
-1.55565202236176e-01 -2.12519025802612e+00 7.42480897903442e+00 358 
9.24080908298492e-02 -2.27163267135620e+00 7.39020633697510e+00 359 
-3.37397992610931e-01 -6.25213742256165e-01 7.42096900939941e+00 361 
-1.61007583141327e-01 -9.55477356910706e-01 7.41607427597046e+00 363 
1.52858436107635e+00 -1.57639348506927e+00 7.41309118270874e+00 364 
8.57330501079559e-01 5.82138359546661e-01 7.34879779815674e+00 366 
-5.77809333801270e-01 1.79297462105751e-01 7.36726188659668e+00 367 
-6.72399997711182e-01 -7.13389515876770e-01 7.38560771942139e+00 368 
1.35940599441528e+00 -7.55242049694061e-01 7.41531419754028e+00 369 
9.46371436119080e-01 -1.16287600994110e+00 7.41293573379517e+00 370 
1.49968945980072e+00 -1.25061678886414e+00 7.41086626052856e+00 371 
-1.74575522542000e-01 -1.98553645610809e+00 7.42799472808838e+00 372 
4.54001463949680e-02 -2.25296998023987e+00 7.39869499206543e+00 373 
-6.56692445278168e-01 -5.43882437050343e-02 7.42854547500610e+00 375 
2.61630177497864e-01 -1.57752424478531e-01 7.33490180969238e+00 376 
4.51159536838531e-01 -2.10725724697113e-01 7.33388042449951e+00 377 
-4.56071525812149e-01 -5.99476814270020e-01 7.42077493667603e+00 378 
1.86188608407974e-01 -7.61550843715668e-01 7.34821557998657e+00 379 
4.75125014781952e-01 -8.27370285987854e-01 7.41936826705933e+00 380 
1.51485574245453e+00 -1.22542953491211e+00 7.41076231002808e+00 382 
1.49124729633331e+00 -1.26500499248505e+00 7.41112232208252e+00 383 
5.43659210205078e-01 -1.37030124664307e+00 7.33071088790894e+00 384 
1.09696304798126e+00 -1.66178286075592e+00 7.41124248504639e+00 385 
-3.72705191373825e-01 -2.25138735771179e+00 7.42692184448242e+00 386 
-1.38774371147156e+00 -1.90593457221985e+00 7.42540121078491e+00 387 
-1.39034330844879e+00 4.50946874916553e-02 7.39406538009644e+00 388 
4.14167225360870e-01 -1.18339397013187e-01 7.33193397521973e+00 389 
3.78292530775070e-01 -4.18972998857498e-01 7.32770061492920e+00 390 
1.13355228677392e-02 -5.96496224403381e-01 7.32053041458130e+00 391 
-3.28043162822723e-01 -1.08687686920166e+00 7.42136335372925e+00 392 
-7.73331284523010e-01 -1.68864333629608e+00 7.40302371978760e+00 393 
-8.25016379356384e-01 -1.74645614624023e+00 7.40392160415649e+00 394 
3.25351536273956e-01 5.94159364700317e-01 7.36428022384644e+00 395 
-8.48229348659515e-01 2.27256789803505e-02 7.34729766845703e+00 398 
1.18647560477257e-01 -1.95978391170502e+00 7.42117834091187e+00 404 
-1.54238772392273e+00 -2.08753600716591e-01 7.41925334930420e+00 405 
-2.55935072898865e-01 -3.24418365955353e-01 7.35083484649658e+00 409 
-6.65113031864166e-01 -2.03764152526855e+00 7.42535972595215e+00 410 
1.11698782444000e+00 -1.91259121894836e+00 7.32474470138550e+00 411 
8.16718041896820e-02 4.18048620223999e-01 7.33867025375366e+00 413 
-1.54942619800568e+00 -6.16845846176147e-01 7.42425298690796e+00 414 
-1.57704591751099e+00 -6.24354302883148e-01 7.42444658279419e+00 415 
1.10242418944836e-01 -7.93267846107483e-01 7.42157840728760e+00 417 
3.69049221277237e-01 -1.09826183319092e+00 7.38248538970947e+00 418 
-1.42817926406860e+00 -1.56621873378754e+00 7.32501125335693e+00 419 
-1.09437830746174e-01 -2.30487155914307e+00 7.43167400360107e+00 420 
-8.44697117805481e-01 -1.23995825648308e-01 7.42713594436646e+00 424 
-1.00080716609955e+00 -9.02974188327789e-01 7.38692855834961e+00 425 
-2.00044289231300e-01 5.28665542602539e-01 7.41365909576416e+00 427 
-1.17572236061096e+00 4.09756809473038e-01 7.42719745635986e+00 428 
5.36992728710175e-01 -9.84520912170410e-01 7.41446208953857e+00 430 
5.56016087532043e-01 6.21537208557129e-01 7.41106367111206e+00 433 
-1.40497219562531e+00 4.16748933494091e-02 7.39580821990967e+00 434 
-8.40268671512604e-01 -1.21365681290627e-01 7.42277574539185e+00 435 
-6.31870865821838e-01 -1.74990594387054e-01 7.42123031616211e+00 436 
-8.76028716564178e-01 -6.84881731867790e-02 7.42331838607788e+00 437 
-1.56619822978973e+00 -6.61934554576874e-01 7.42452239990234e+00 438 
-9.04333114624023e-01 -2.24479460716248e+00 7.42657470703125e+00 440 
1.51482737064362e+00 -2.11022663116455e+00 7.40945482254028e+00 441 
1.56633853912354e+00 -2.13802242279053e+00 7.40955400466919e+00 442 
-1.33555197715759e+00 -6.78202986717224e-01 7.37227964401245e+00 444 
4.08259890973568e-02 1.44069060683250e-01 7.42685270309448e+00 446 
-1.54672944545746e+00 -6.62177205085754e-01 7.42559051513672e+00 447 
-9.66309726238251e-01 2.79713153839111e-01 7.29623365402222e+00 448 
1.33216142654419e-01 -2.46317178010941e-01 7.42216157913208e+00 449 
-3.20776551961899e-01 4.18216049671173e-01 7.40591812133789e+00 451 
-9.22439992427826e-01 5.81422671675682e-02 7.34797239303589e+00 452 
3.35304379463196e-01 -7.76950657367706e-01 7.40575408935547e+00 455 
-1.24844121932983e+00 4.90570902824402e-01 7.41743135452271e+00 456 
-1.23703122138977e+00 1.30263179540634e-01 7.34734630584717e+00 457 
6.56730592250824e-01 -4.56698268651962e-01 7.41409683227539e+00 459 
-7.47764825820923e-01 -1.64690518379211e+00 7.42321825027466e+00 460 
5.43314516544342e-01 -1.35834443569183e+00 7.32596254348755e+00 463 
-1.52009701728821e+00 4.47627782821655e-01 7.42683410644531e+00 464 
-1.36284470558167e+00 -1.53110241889954e+00 7.30975103378296e+00 466 
1.89739823341370e-01 -3.30089144408703e-02 7.41725349426270e+00 467 
-1.50475189089775e-01 -7.13942050933838e-01 7.38830375671387e+00 471 
-4.48756098747253e-01 -1.74171066284180e+00 7.35322237014771e+00 472 
1.11404109001160e+00 -1.91591024398804e+00 7.32469987869263e+00 473 
1.23586690425873e+00 1.33063957095146e-01 7.35748434066772e+00 474 
-8.69171023368835e-01 -4.55298632383347e-01 7.39852571487427e+00 475 
1.08386743068695e+00 -2.70162194967270e-01 7.34082460403442e+00 476 
-8.31143677234650e-01 -8.10489952564240e-01 7.42528200149536e+00 477 
-1.03184449672699e+00 -7.12086796760559e-01 7.42493009567261e+00 479 
-4.08154308795929e-01 -5.98712205886841e-01 7.41999483108521e+00 481 
3.97157490253448e-01 6.34416580200195e-01 7.42548704147339e+00 484 
-1.44470632076263e+00 3.71902406215668e-01 7.33844232559204e+00 485 
2.69613623619080e-01 2.54162997007370e-01 7.41707658767700e+00 486 
-1.31579399108887e+00 -4.74910259246826e-01 7.42899560928345e+00 487 
1.33843064308167e+00 -2.10837316513062e+00 7.33482694625854e+00 489 
1.78517371416092e-01 2.31661662459373e-01 7.41791391372681e+00 490 
-1.46030294895172e+00 -1.94049549102783e+00 7.43029975891113e+00 491 
-1.17403829097748e+00 -2.13210082054138e+00 7.42644119262695e+00 492 
1.52282321453094e+00 -2.18993878364563e+00 7.41048526763916e+00 493 
1.45569634437561e+00 -5.84725253283978e-02 7.41037702560425e+00 494 
-2.76223719120026e-01 -4.93316769599915e-01 7.42537498474121e+00 495 
6.56977534294128e-01 -4.56821769475937e-01 7.41418170928955e+00 496 
8.75321209430695e-01 -4.96675223112106e-01 7.34193944931030e+00 497 
-1.40401646494865e-01 -1.18762481212616e+00 7.36192607879639e+00 498 
-6.11125707626343e-01 -1.71590662002563e+00 7.40434217453003e+00 499 
7.51273870468140e-01 -1.96008634567261e+00 7.28107452392578e+00 500 
4.90596204996109e-01 -2.31156444549561e+00 7.41337108612061e+00 501 
2.07946419715881e-01 -1.61698830127716e+00 7.36529970169067e+00 502 
1.22703403234482e-01 5.86978077888489e-01 7.34716939926147e+00 504 
-9.84791457653046e-01 -5.39519608020782e-01 7.42584037780762e+00 505 
-7.78296053409576e-01 -5.92346727848053e-01 7.38382863998413e+00 506 
-1.30457019805908e+00 -8.91636550426483e-01 7.32082128524780e+00 508 
-1.46154785156250e+00 -1.56461060047150e+00 7.32446908950806e+00 511 
-3.28871384263039e-02 -1.49794936180115e+00 7.41136884689331e+00 512 
6.01649165153503e-01 4.93324995040894e-01 7.42552471160889e+00 515 
-1.55931293964386e+00 2.67122238874435e-01 7.42803335189819e+00 516 
-1.01681518554688e+00 2.06708252429962e-01 7.31415700912476e+00 517 
1.08792923390865e-01 2.82457053661346e-01 7.33271169662476e+00 518 
3.33086699247360e-01 3.19146990776062e-01 7.42113685607910e+00 519 
-6.11288666725159e-01 -1.32735818624496e-02 7.41011810302734e+00 520 
-7.52651453018188e-01 -7.41214513778687e-01 7.37485885620117e+00 522 
-8.96078288555145e-01 -1.01848709583282e+00 7.39556694030762e+00 523 
-1.23567461967468e+00 -1.34954857826233e+00 7.38399553298950e+00 524 
-1.09953320026398e+00 -1.41008675098419e+00 7.36530876159668e+00 526 
-1.10038638114929e+00 -1.41607701778412e+00 7.36044645309448e+00 527 
1.21114104986191e-01 5.82141816616058e-01 7.35098457336426e+00 531 
-1.42843520641327e+00 3.27782928943634e-01 7.34932327270508e+00 533 
-7.99392998218536e-01 -3.59786711633205e-02 7.42865705490112e+00 534 
3.18400919437408e-01 8.50493647158146e-03 7.40418624877930e+00 535 
2.87646025419235e-01 -3.05267781019211e-01 7.33417463302612e+00 536 
-1.49013090133667e+00 -1.26777064800262e+00 7.34949016571045e+00 538 
-4.90543931722641e-01 -1.32404947280884e+00 7.37478113174438e+00 540 
4.44487839937210e-01 -1.42889761924744e+00 7.38351202011108e+00 541 
-2.94531881809235e-01 -2.18067669868469e+00 7.36130380630493e+00 544 
-1.50207936763763e+00 -6.46095991134644e-01 7.42795848846436e+00 548 
-1.55173802375793e+00 -9.10917818546295e-01 7.43222951889038e+00 549 
-2.16379955410957e-01 -1.81430184841156e+00 7.42871189117432e+00 552 
1.33755707740784e+00 -2.10722970962524e+00 7.33601665496826e+00 555 
-8.98672580718994e-01 6.77546635270119e-02 7.34845781326294e+00 556 
-6.80685758590698e-01 -1.81340825557709e+00 7.42869949340820e+00 558 
-8.65610301494598e-01 8.39477777481079e-02 7.34606218338013e+00 559 
1.45714712142944e+00 -6.00349940359592e-02 7.40944242477417e+00 560 
-1.11642396450043e+00 -4.97034102678299e-01 7.37921237945557e+00 561 
-6.27849638462067e-01 -5.56320846080780e-01 7.41715574264526e+00 562 
-3.31510514020920e-01 -6.33475303649902e-01 7.42404794692993e+00 563 
1.87118738889694e-01 -8.47611188888550e-01 7.41396474838257e+00 564 
8.70474040508270e-01 -1.17887473106384e+00 7.31848526000977e+00 565 
4.11034792661667e-01 -1.22999262809753e+00 7.36407375335693e+00 566 
1.34653997421265e+00 -1.79126000404358e+00 7.41172313690186e+00 568 
-1.51486802101135e+00 -6.50033235549927e-01 7.42654132843018e+00 570 
1.09280610084534e+00 -6.13042414188385e-01 7.40809106826782e+00 571 
9.46034193038940e-01 6.97887718677521e-01 7.42182826995850e+00 573 
1.61834716796875e-01 -8.43882113695145e-02 7.42141771316528e+00 574 
-1.27942907810211e+00 -2.43734389543533e-01 7.40121364593506e+00 575 
1.25274181365967e+00 -3.20870101451874e-01 7.34599542617798e+00 576 
-6.51179850101471e-01 -8.98400485515594e-01 7.42319774627686e+00 577 
-1.81516021490097e-01 -1.24614715576172e+00 7.39914560317993e+00 578 
-4.81490880250931e-01 2.14433059096336e-01 7.37050580978394e+00 581 
-2.92166322469711e-01 1.19095772504807e-01 7.33390855789185e+00 582 
4.08891253173351e-02 -5.56268766522408e-02 7.42228460311890e+00 583 
-1.16468524932861e+00 -9.64368402957916e-01 7.37604665756226e+00 585 
-9.01411712169647e-01 -1.19632542133331e+00 7.43067646026611e+00 587 
5.86435317993164e-01 -2.08911323547363e+00 7.30532789230347e+00 589 
-1.18435549736023e+00 -1.79785534739494e-01 7.33886241912842e+00 590 
1.20230340957642e+00 6.98385715484619e-01 7.34779787063599e+00 592 
-1.25396752357483e+00 -1.42574742436409e-01 7.40296649932861e+00 595 
-1.52830564975739e+00 -1.35041701793671e+00 7.35249185562134e+00 597 
8.89595627784729e-01 -1.22276651859283e+00 7.31813812255859e+00 598 
-4.68541085720062e-01 -2.28964209556580e+00 7.34678983688354e+00 600 
-1.13352727890015e+00 -4.81407344341278e-01 7.36381483078003e+00 604 
-1.32724344730377e+00 -8.37217271327972e-01 7.30908441543579e+00 607 
2.36746907234192e-01 -1.10314249992371e+00 7.42164993286133e+00 609 
-1.39511990547180e+00 -1.26981210708618e+00 7.36568546295166e+00 610 
1.22070860862732e+00 7.11185574531555e-01 7.33955621719360e+00 613 
-9.08686697483063e-01 -1.94611530750990e-02 7.41610431671143e+00 615 
-1.25356709957123e+00 -1.44479915499687e-01 7.40197420120239e+00 616 
-1.16492295265198e+00 -1.86402961611748e-01 7.33775854110718e+00 617 
-6.31342530250549e-01 -1.73589825630188e-01 7.42139005661011e+00 618 
-8.98017585277557e-01 -1.02185845375061e+00 7.39556884765625e+00 621 
-1.07529568672180e+00 -1.66335165500641e+00 7.38690614700317e+00 623 
1.23876340687275e-01 5.90003311634064e-01 7.34527683258057e+00 624 
-4.67600286006927e-01 4.39307898283005e-01 7.41024398803711e+00 625 
9.25526618957520e-01 3.89742851257324e-01 7.34369564056396e+00 626 
-1.02562919259071e-01 8.85688662528992e-02 7.42155027389526e+00 628 
2.48672500252724e-01 5.25502189993858e-02 7.40111207962036e+00 629 
-6.23419918119907e-02 -5.26524662971497e-01 7.34643983840942e+00 630 
-1.48225533962250e+00 -1.24497103691101e+00 7.35155582427979e+00 633 
4.44845676422119e-01 -1.43023753166199e+00 7.38350391387939e+00 634 
-1.27290463447571e+00 -1.70030093193054e+00 7.36020612716675e+00 635 
1.06477856636047e+00 -2.23343038558960e+00 7.32074928283691e+00 637 
-1.24721884727478e+00 4.94212120771408e-01 7.41673517227173e+00 638 
1.08065523207188e-01 2.79378861188889e-01 7.33325433731079e+00 640 
-1.04677605628967e+00 -2.30222195386887e-01 7.29314041137695e+00 641 
-9.37850773334503e-01 -9.39993441104889e-01 7.41114854812622e+00 642 
-9.07265365123749e-01 -1.67184352874756e+00 7.35081100463867e+00 644 
7.03566074371338e-01 3.99850271642208e-02 7.37350368499756e+00 645 
-6.55708312988281e-01 -1.86109852790833e+00 7.42161560058594e+00 646 
-1.25315427780151e+00 -2.29377365112305e+00 7.36207866668701e+00 647 
-4.92230743169785e-01 2.65017032623291e-01 7.39118814468384e+00 648 
-2.23390087485313e-01 -3.18730950355530e-01 7.36106204986572e+00 649 
1.52956569194794e+00 -2.11672306060791e+00 7.41103982925415e+00 650 
-5.64510285854340e-01 -3.88159722089767e-01 7.42309808731079e+00 651 
-1.33923542499542e+00 -1.00156986713409e+00 7.32786798477173e+00 652 
1.29325985908508e+00 -1.67699682712555e+00 7.32347917556763e+00 653 
-1.39759337902069e+00 -2.13397717475891e+00 7.43426084518433e+00 654 
-1.19212210178375e+00 4.50130194425583e-01 7.43030881881714e+00 656 
-9.14172291755676e-01 4.14251089096069e-01 7.42536115646362e+00 657 
-1.52967357635498e+00 -2.47943833470345e-01 7.42591476440430e+00 658 
-1.53466820716858e+00 -2.48761236667633e-01 7.42647695541382e+00 659 
-6.53369486331940e-01 -7.12944984436035e-01 7.42276191711426e+00 660 
1.37388736009598e-01 -2.20023202896118e+00 7.39787006378174e+00 662 
1.17806220054626e+00 3.18727791309357e-01 7.36354303359985e+00 663 
-1.52191591262817e+00 -4.39763188362122e-01 7.42728471755981e+00 664 
-1.10808536410332e-01 -1.89193332195282e+00 7.35958480834961e+00 666 
-1.37622082233429e+00 -2.16070508956909e+00 7.43509674072266e+00 667 
1.10093390941620e+00 4.01418745517731e-01 7.41334056854248e+00 668 
1.11441123485565e+00 3.67422282695770e-01 7.41731023788452e+00 669 
-1.43133258819580e+00 -4.63307261466980e-01 7.42632007598877e+00 670 
-8.17855536937714e-01 -2.27183651924133e+00 7.35631752014160e+00 672 
1.11146259307861e+00 -8.53442668914795e-01 7.41560935974121e+00 673 
-8.84153604507446e-01 -2.24496865272522e+00 7.42845249176025e+00 674 
8.01544547080994e-01 -2.21794962882996e+00 7.41632413864136e+00 675 
1.01738667488098e+00 5.44974267482758e-01 7.41967058181763e+00 676 
-8.43543410301208e-01 -1.24085038900375e-01 7.42680025100708e+00 679 
-3.52387636899948e-01 -1.04694330692291e+00 7.39073467254639e+00 680 
6.14770129323006e-02 -1.10911524295807e+00 7.42125129699707e+00 681 
-1.33011376857758e+00 -1.46900832653046e+00 7.41251897811890e+00 684 
-1.34116208553314e+00 -1.75611567497253e+00 7.43147563934326e+00 687 
-1.23213922977448e+00 -1.89486515522003e+00 7.38150501251221e+00 688 
-1.09182453155518e+00 -2.03794360160828e+00 7.33690071105957e+00 689 
-1.33326202630997e-01 -2.32222604751587e+00 7.43317461013794e+00 690 
-1.12631905078888e+00 3.74589085578918e-01 7.42966747283936e+00 691 
-8.51815640926361e-01 2.35591884702444e-02 7.34825372695923e+00 695 
4.32595461606979e-01 -5.86929321289062e-01 7.35152482986450e+00 698 
-4.11364287137985e-01 -9.56239521503448e-01 7.42454814910889e+00 700 
-1.48274290561676e+00 -1.25480747222900e+00 7.35132646560669e+00 703 
-7.43409216403961e-01 -1.40734755992889e+00 7.41616439819336e+00 704 
5.90455651283264e-01 6.54806375503540e-01 7.40943574905396e+00 706 
-1.17579126358032e+00 -7.53145888447762e-02 7.33742141723633e+00 708 
-1.13527262210846e+00 -8.79155516624451e-01 7.42267227172852e+00 710 
-1.29075789451599e+00 -9.33626353740692e-01 7.33303833007812e+00 711 
8.74308347702026e-01 -1.15384733676910e+00 7.30384111404419e+00 712 
-1.03359448909760e+00 -1.71653139591217e+00 7.41144895553589e+00 713 
-1.09762811660767e+00 -4.02057841420174e-02 7.42424726486206e+00 716 
-1.32869708538055e+00 -8.26601445674896e-01 7.30906200408936e+00 719 
-6.38571441173553e-01 -8.77254128456116e-01 7.42341232299805e+00 720 
6.06282532215118e-01 -9.08643424510956e-01 7.33708333969116e+00 721 
2.08066880702972e-01 -1.08771324157715e+00 7.41500329971313e+00 724 
-5.41914224624634e-01 -1.28797614574432e+00 7.37654638290405e+00 725 
-1.12211954593658e+00 -1.41197109222412e+00 7.36006402969360e+00 726 
1.66469346731901e-02 -1.46062743663788e+00 7.41183185577393e+00 727 
-1.48586761951447e+00 -9.64181005954742e-01 7.40214395523071e+00 729 
-7.49285459518433e-01 -1.40622508525848e+00 7.41611003875732e+00 730 
-7.81384110450745e-01 -1.53363084793091e+00 7.42853593826294e+00 731 
8.43491911888123e-01 5.42444348335266e-01 7.34266328811646e+00 736 
6.24828994274139e-01 -4.35117632150650e-01 7.41996049880981e+00 738 
-3.20554137229919e-01 -1.62081742286682e+00 7.42997407913208e+00 739 
-6.73831924796104e-02 4.65598404407501e-01 7.42272567749023e+00 741 
-9.03323650360107e-01 6.82542249560356e-02 7.34639930725098e+00 742 
9.99374270439148e-01 1.56772881746292e-01 7.34462547302246e+00 743 
-2.05306306481361e-01 3.94345708191395e-02 7.33494138717651e+00 744 
-1.24721467494965e+00 -5.39645135402679e-01 7.38353586196899e+00 746 
-1.06805229187012e+00 -1.03628110885620e+00 7.36503124237061e+00 747 
-8.95620405673981e-01 -1.20230579376221e+00 7.43035078048706e+00 748 
5.64624488353729e-01 -1.29935276508331e+00 7.42152309417725e+00 749 
-1.17561519145966e+00 -1.93836748600006e+00 7.36676454544067e+00 751 
1.12254893779755e+00 -1.90379202365875e+00 7.32430458068848e+00 752 
-1.25875115394592e+00 -2.12221860885620e+00 7.37026548385620e+00 753 
4.18211728334427e-01 2.87546664476395e-01 7.41810226440430e+00 754 
5.42949140071869e-01 -1.58516958355904e-01 7.41894340515137e+00 755 
-3.39597374200821e-01 4.84912246465683e-01 7.40989828109741e+00 756 
-1.39875197410583e+00 -2.18143011443317e-03 7.39662933349609e+00 757 
-8.83928835391998e-01 8.66581313312054e-03 7.34647846221924e+00 758 
1.87657013535500e-01 -8.51042926311493e-01 7.41384458541870e+00 759 
-6.63258790969849e-01 -1.11285650730133e+00 7.34798526763916e+00 760 
-2.64633357524872e-01 -1.13068723678589e+00 7.40999889373779e+00 762 
2.41468939930201e-02 -1.29656000062823e-02 7.42227649688721e+00 764 
-1.57271838188171e+00 -3.03046405315399e-01 7.42521286010742e+00 766 
1.51441681385040e+00 -1.37026280164719e-01 7.34838151931763e+00 767 
1.55399203300476e+00 -2.07853126525879e+00 7.40819549560547e+00 768 
1.53671598434448e+00 -2.25223731994629e+00 7.41019773483276e+00 769 
-9.20361638069153e-01 2.47763589024544e-01 7.32343244552612e+00 770 
-1.56187820434570e+00 -6.16301536560059e-01 7.42669820785522e+00 771 
-1.37113761901855e+00 -2.16571760177612e+00 7.43325901031494e+00 772 
-1.01130378246307e+00 -1.80066728591919e+00 7.38534832000732e+00 774 
-1.48565208911896e+00 -1.98700177669525e+00 7.42787599563599e+00 775 
-1.16755497455597e+00 -1.89062416553497e-01 7.33864545822144e+00 776 
-1.56508183479309e+00 -6.67354106903076e-01 7.42415714263916e+00 777 
3.69570702314377e-01 -1.74762964248657e+00 7.42260265350342e+00 779 
-1.37243592739105e+00 -1.05983543395996e+00 7.35879707336426e+00 780 
-1.36693024635315e+00 -1.05002963542938e+00 7.35840940475464e+00 782 
-8.53417098522186e-01 -1.98911380767822e+00 7.43051290512085e+00 786 
1.27589237689972e+00 -1.83264994621277e+00 7.32858037948608e+00 787 
5.72008907794952e-01 1.72659978270531e-02 7.37604808807373e+00 789 
5.36824911832809e-02 -2.53606736660004e-01 7.36301469802856e+00 790 
-1.13895392417908e+00 -4.91117209196091e-01 7.36199855804443e+00 791 
6.39307975769043e-01 -4.21984463930130e-01 7.41505336761475e+00 792 
-6.74772799015045e-01 -7.35798716545105e-01 7.38510751724243e+00 793 
-1.55138790607452e+00 -1.09301161766052e+00 7.33380031585693e+00 794 
-8.98596584796906e-01 -1.10875701904297e+00 7.36385631561279e+00 795 
-1.47255074977875e+00 -1.22605717182159e+00 7.35183429718018e+00 796 
6.14812552928925e-01 -3.28225940465927e-01 7.41755294799805e+00 798 
-1.05804526805878e+00 -1.01744413375854e+00 7.36518669128418e+00 799 
-1.14037513732910e+00 -1.17429113388062e+00 7.37730312347412e+00 800 
-8.95828247070312e-01 -1.17128765583038e+00 7.43055105209351e+00 801 
-1.14712846279144e+00 -1.93970167636871e+00 7.37780618667603e+00 804 
-1.49978268146515e+00 -2.00745487213135e+00 7.38597679138184e+00 805 
3.01273167133331e-01 -7.00343132019043e-01 7.33615350723267e+00 808 
3.71813774108887e-02 -1.47697997093201e+00 7.42434835433960e+00 809 
-1.23524653911591e+00 -1.65158641338348e+00 7.37987041473389e+00 810 
-1.25780391693115e+00 -2.28511261940002e+00 7.36694145202637e+00 811 
1.47502195835114e+00 5.89512526988983e-01 7.41237258911133e+00 812 
-1.45231258869171e+00 3.33848148584366e-01 7.34990787506104e+00 813 
-5.93314506113529e-02 4.45831120014191e-01 7.42280435562134e+00 814 
-6.39274716377258e-01 3.60536605119705e-01 7.41111850738525e+00 815 
-7.34184682369232e-01 -5.00140003859997e-02 7.42871761322021e+00 816 
-1.08037805557251e+00 -1.51378557085991e-01 7.42808198928833e+00 817 
1.40421867370605e+00 3.81859112530947e-03 7.34477949142456e+00 818 
-2.11632907390594e-01 -5.68251967430115e-01 7.36370182037354e+00 819 
-6.54714107513428e-01 -7.19509720802307e-01 7.42085218429565e+00 820 
-1.00241899490356e+00 -1.26206600666046e+00 7.41532850265503e+00 821 
1.53269219398499e+00 -1.15473198890686e+00 7.40958642959595e+00 822 
-1.04133091866970e-01 -1.49225997924805e+00 7.33966588973999e+00 823 
-3.58603626489639e-01 -2.03081536293030e+00 7.34734630584717e+00 824 
-1.20499098300934e+00 -2.20141172409058e+00 7.43115854263306e+00 825 
-9.96574997901917e-01 -2.24029111862183e+00 7.42503833770752e+00 826 
-1.54309856891632e+00 -4.24351729452610e-02 7.43100643157959e+00 827 
-5.14487922191620e-01 -2.12350201606750e+00 7.36086130142212e+00 828 
4.77240383625031e-01 -2.17132985591888e-01 7.33456230163574e+00 830 
-1.52232432365417e+00 4.51293766498566e-01 7.42636251449585e+00 835 
-1.17099857330322e+00 -1.46941077709198e+00 7.37679147720337e+00 836 
-1.23436403274536e+00 1.10602013766766e-01 7.34548854827881e+00 837 
-9.23889279365540e-01 -1.42444741725922e+00 7.42350387573242e+00 838 
-1.06412136554718e+00 3.57622623443604e-01 7.42597818374634e+00 842 
3.62500399351120e-01 5.78782021999359e-01 7.35098505020142e+00 845 
-4.64849621057510e-02 -2.76152491569519e-01 7.36448526382446e+00 846 
1.97967216372490e-01 -1.90193736553192e+00 7.42845058441162e+00 851 
8.81570503115654e-02 3.32087635993958e-01 7.36116600036621e+00 854 
-9.93337154388428e-01 4.64011996984482e-01 7.38680696487427e+00 855 
-3.92924696207047e-01 -2.26715505123138e-01 7.41139268875122e+00 856 
-1.00554573535919e+00 -8.85307908058167e-01 7.38824033737183e+00 857 
5.17499566078186e-01 -1.29177820682526e+00 7.42299699783325e+00 858 
5.13838052749634e-01 5.33146023750305e-01 7.36118507385254e+00 862 
-1.45871087908745e-01 2.25674867630005e-01 7.42156744003296e+00 863 
3.32681298255920e-01 -1.04233515262604e+00 7.34484481811523e+00 865 
-4.86444681882858e-01 -1.27960145473480e+00 7.37614774703979e+00 866 
-1.44046199321747e+00 3.77034187316895e-01 7.34729766845703e+00 868 
-1.23158740997314e+00 -1.33305895328522e+00 7.37690830230713e+00 872 
-1.11272549629211e+00 -1.66769826412201e+00 7.35713672637939e+00 873 
1.36901423335075e-01 -2.52335816621780e-01 7.42196416854858e+00 875 
8.31766501069069e-02 5.88890731334686e-01 7.34052038192749e+00 878 
6.29531502723694e-01 1.10398784279823e-01 7.35263204574585e+00 881 
-1.32935452461243e+00 -5.58481574058533e-01 7.39399194717407e+00 883 
-1.27901911735535e+00 -1.52856540679932e+00 7.32518625259399e+00 884 
-7.60330498218536e-01 4.45581704378128e-01 7.42480897903442e+00 885 
-8.06258022785187e-01 3.46343368291855e-02 7.34722137451172e+00 886 
-7.82268881797791e-01 -1.04837131500244e+00 7.41040468215942e+00 887 
-1.15004086494446e+00 -1.94401586055756e+00 7.37780380249023e+00 890 
-8.77463936805725e-01 -7.05853477120399e-02 7.42529678344727e+00 891 
2.90970832109451e-01 -3.07380884885788e-01 7.33415317535400e+00 892 
-8.83582234382629e-01 -3.97436201572418e-01 7.37554073333740e+00 893 
-1.38666820526123e+00 -1.90525925159454e+00 7.42729759216309e+00 895 
-4.31114196777344e-01 -2.03031516075134e+00 7.37447738647461e+00 896 
4.86745417118073e-01 -2.30800676345825e+00 7.41295194625854e+00 897 
-1.90017372369766e-01 -5.64055204391479e-01 7.36353540420532e+00 899 
-1.12509369850159e+00 -4.96669948101044e-01 7.37313222885132e+00 900 
-9.68900263309479e-01 -1.80779182910919e+00 7.35479259490967e+00 901 
-8.45578789710999e-01 2.06756461411715e-02 7.34710741043091e+00 902 
-1.26352262496948e+00 -9.18649613857269e-01 7.32801103591919e+00 904 
-5.75691163539886e-01 -9.20584499835968e-01 7.42383146286011e+00 905 
-9.49077010154724e-01 -1.19228219985962e+00 7.38128328323364e+00 906 
-1.24926865100861e+00 4.88971978425980e-01 7.41411495208740e+00 907 
3.86093795299530e-01 4.70918565988541e-01 7.36015892028809e+00 908 
-6.46593928337097e-01 -1.20130145549774e+00 7.34584808349609e+00 910 
4.62536901235580e-01 -2.39515244960785e-01 7.33129835128784e+00 912 
-8.10691118240356e-01 -3.89576107263565e-01 7.36669254302979e+00 913 
-1.30444824695587e+00 -8.94422054290771e-01 7.32049989700317e+00 914 
-5.09551525115967e-01 -5.22822380065918e-01 7.42336034774780e+00 916 
5.18752038478851e-01 -9.31735157966614e-01 7.41562795639038e+00 917 
-8.07435512542725e-01 -3.58561605215073e-01 7.37037801742554e+00 918 
-9.94716644287109e-01 -7.52314865589142e-01 7.35848283767700e+00 921 
-1.45381331443787e+00 -1.56651377677917e+00 7.32403326034546e+00 925 
-1.13448965549469e+00 4.22468811273575e-01 7.43104839324951e+00 926 
-9.97636139392853e-01 -1.03912103176117e+00 7.36970424652100e+00 927 
-1.45367121696472e+00 -1.16931378841400e+00 7.36537122726440e+00 929 
4.08252209424973e-01 4.91257250308990e-01 7.35374736785889e+00 931 
-6.31059765815735e-01 2.97200620174408e-01 7.41058540344238e+00 932 
-1.51336419582367e+00 -6.32702469825745e-01 7.43022251129150e+00 933 
5.15626966953278e-01 -8.63926589488983e-01 7.32594347000122e+00 939 
-1.14656591415405e+00 4.91879373788834e-01 7.43319177627563e+00 941 
2.76800274848938e-01 -2.84881860017776e-01 7.33406019210815e+00 942 
4.04811829328537e-01 -3.39904010295868e-01 7.41836309432983e+00 943 
-1.19944393634796e+00 7.49007090926170e-02 7.34571027755737e+00 945 
-1.28740477561951e+00 -1.19609642028809e+00 7.36977386474609e+00 949 
-9.41539406776428e-01 -2.12290954589844e+00 7.42508077621460e+00 950 
-1.40370678901672e+00 3.59400436282158e-02 7.39674949645996e+00 954 
-8.29342126846313e-01 -7.97400057315826e-01 7.42266321182251e+00 956 
-6.66273117065430e-01 -1.19803833961487e+00 7.35546827316284e+00 957 
5.58093905448914e-01 -1.28861331939697e+00 7.42139959335327e+00 958 
-9.13178920745850e-01 2.66806423664093e-01 7.32168483734131e+00 959 
-8.12590956687927e-01 -1.96785676479340e+00 7.42670869827271e+00 960 
-1.38493132591248e+00 -2.82499283552170e-01 7.32360315322876e+00 962 
-3.92960906028748e-01 -2.02046108245850e+00 7.37259817123413e+00 963 
1.22081685066223e+00 -3.08336913585663e-01 7.33878517150879e+00 967 
1.41958022117615e+00 5.51565885543823e-01 7.41696166992188e+00 981 
-1.60843014717102e+00 2.63549923896790e-01 7.42941141128540e+00 982 
1.34905838966370e+00 5.50933241844177e-01 7.41709423065186e+00 985 
1.99791733175516e-02 -3.81615191698074e-01 7.38129377365112e+00 989 
9.59374189376831e-01 8.77437114715576e-01 7.41374683380127e+00 991 
-2.96105295419693e-01 8.92813131213188e-02 7.33382225036621e+00 993 
5.56801855564117e-01 1.67988881468773e-01 7.34489440917969e+00 994 
-5.55631339550018e-01 1.29368710517883e+00 7.41794061660767e+00 995 
7.60486841201782e-01 -2.18160212039948e-01 7.42333650588989e+00 996 
1.43495285511017e+00 9.59554195404053e-01 7.39122152328491e+00 997 
-4.38849180936813e-01 1.03366696834564e+00 7.42159605026245e+00 998 
1.50623857975006e+00 6.51841998100281e-01 7.41382694244385e+00 999 
1.28136977553368e-01 2.11021137237549e+00 7.41862392425537e+00 1000 
1.04938113689423e+00 -2.90523618459702e-01 7.33879423141479e+00 1001 
8.90052855014801e-01 2.21145558357239e+00 7.41855478286743e+00 1002 
1.88703283667564e-01 -4.09484565258026e-01 7.41709327697754e+00 1003 
2.47336048632860e-02 -4.52380001544952e-01 7.38117647171021e+00 1005 
2.46378615498543e-01 5.29588162899017e-01 7.41822528839111e+00 1007 
-4.79141861200333e-01 7.03707277774811e-01 7.35698270797729e+00 1008 
9.86913323402405e-01 1.95273649692535e+00 7.41475152969360e+00 1009 
-3.27397584915161e-02 2.03388500213623e+00 7.38416624069214e+00 1010 
-5.02958953380585e-01 -1.73092260956764e-01 7.37730550765991e+00 1011 
8.13129484653473e-01 -8.60558450222015e-02 7.42461776733398e+00 1014 
5.19011616706848e-01 3.16511452198029e-01 7.33444070816040e+00 1018 
4.69802618026733e-01 6.23508751392365e-01 7.42522764205933e+00 1020 
4.69528406858444e-01 9.09996628761292e-01 7.43023204803467e+00 1021 
-2.03921705484390e-01 5.35465419292450e-01 7.41737127304077e+00 1022 
8.37786853313446e-01 7.27662980556488e-01 7.37177801132202e+00 1023 
-7.14665055274963e-01 9.69302952289581e-01 7.32477188110352e+00 1024 
1.05578255653381e+00 2.11084723472595e+00 7.41800880432129e+00 1025 
7.90429055690765e-01 2.14756464958191e+00 7.41871070861816e+00 1026 
1.08506417274475e+00 1.90400624275208e+00 7.41826629638672e+00 1027 
