ply
format ascii 1.0
element vertex 689
property double x
property double y
property double z
property short id
end_header
-1.77750617265701e-01 -1.05483663082123e+00 8.18726539611816e+00 363 
1.68754065036774e+00 -1.74032127857208e+00 8.18397235870361e+00 364 
1.32160902023315e+00 7.68393635749817e-01 8.11391162872314e+00 365 
9.46483552455902e-01 6.42674446105957e-01 8.11299324035645e+00 366 
-6.37895226478577e-01 1.97942435741425e-01 8.13337707519531e+00 367 
-7.42322325706482e-01 -7.87574291229248e-01 8.15363121032715e+00 368 
1.50076949596405e+00 -8.33779036998749e-01 8.18642616271973e+00 369 
1.04478383064270e+00 -1.28380250930786e+00 8.18380069732666e+00 370 
1.65564084053040e+00 -1.38066732883453e+00 8.18151569366455e+00 371 
-1.92729488015175e-01 -2.19201064109802e+00 8.20042610168457e+00 372 
5.01212701201439e-02 -2.48725461959839e+00 8.16807937622070e+00 373 
1.38312852382660e+00 1.42672061920166e-01 8.12346267700195e+00 374 
-7.24981307983398e-01 -6.00440390408039e-02 8.20103359222412e+00 375 
2.88836866617203e-01 -1.74156978726387e-01 8.09765243530273e+00 376 
4.98075217008591e-01 -2.32638925313950e-01 8.09652423858643e+00 377 
-5.03498017787933e-01 -6.61815941333771e-01 8.19245529174805e+00 378 
2.05550208687782e-01 -8.40743899345398e-01 8.11235046386719e+00 379 
5.24532854557037e-01 -9.13407862186432e-01 8.19090175628662e+00 380 
9.85678791999817e-01 -1.09758353233337e+00 8.18170452117920e+00 381 
1.67238426208496e+00 -1.35286092758179e+00 8.18140125274658e+00 382 
1.64632093906403e+00 -1.39655172824860e+00 8.18179893493652e+00 383 
6.00193858146667e-01 -1.51279771327972e+00 8.09302520751953e+00 384 
1.21103537082672e+00 -1.83459031581879e+00 8.18193149566650e+00 385 
-4.11462485790253e-01 -2.48550724983215e+00 8.19924068450928e+00 386 
-1.53205406665802e+00 -2.10413098335266e+00 8.19756221771240e+00 387 
-1.53492391109467e+00 4.97840419411659e-02 8.16296768188477e+00 388 
4.57236111164093e-01 -1.30645424127579e-01 8.09437561035156e+00 389 
4.17630851268768e-01 -4.62541639804840e-01 8.08970260620117e+00 390 
1.25142941251397e-02 -6.58525407314301e-01 8.08178615570068e+00 391 
-3.62156093120575e-01 -1.19990026950836e+00 8.19310474395752e+00 392 
-8.53749394416809e-01 -1.86424398422241e+00 8.17285823822021e+00 393 
-9.10809159278870e-01 -1.92806863784790e+00 8.17384910583496e+00 394 
3.59184592962265e-01 6.55945479869843e-01 8.13008594512939e+00 395 
-9.36435997486115e-01 2.50888988375664e-02 8.11133670806885e+00 398 
-1.07624995708466e+00 4.34703797101974e-01 8.19693470001221e+00 399 
1.34076309204102e+00 -5.79763472080231e-01 8.18953227996826e+00 401 
-7.38969266414642e-01 -1.96446204185486e+00 8.17289161682129e+00 402 
-1.04189991950989e+00 -2.16135907173157e+00 8.20300960540771e+00 403 
1.30985617637634e-01 -2.16358017921448e+00 8.19290065765381e+00 404 
-1.70277941226959e+00 -2.30461716651917e-01 8.19077491760254e+00 405 
6.71226739883423e-01 -6.25980675220490e-01 8.08716583251953e+00 406 
1.68496668338776e+00 -1.74056375026703e+00 8.18566322326660e+00 407 
-7.24364757537842e-01 -2.06179666519165e+00 8.20025825500488e+00 408 
-2.82549530267715e-01 -3.58154356479645e-01 8.11524200439453e+00 409 
-7.34277546405792e-01 -2.24953413009644e+00 8.19751644134521e+00 410 
1.23314249515533e+00 -2.11147999763489e+00 8.08643913269043e+00 411 
-1.27146673202515e+00 -1.95852220058441e+00 8.13155937194824e+00 412 
9.01647806167603e-02 4.61521148681641e-01 8.10181236267090e+00 413 
-1.71054983139038e+00 -6.80991113185883e-01 8.19629478454590e+00 414 
-1.74104166030884e+00 -6.89280390739441e-01 8.19650840759277e+00 415 
1.21706433594227e-01 -8.75759124755859e-01 8.19334220886230e+00 417 
4.07426327466965e-01 -1.21246910095215e+00 8.15018367767334e+00 418 
-1.57669448852539e+00 -1.72908854484558e+00 8.08673286437988e+00 419 
-1.20818175375462e-01 -2.54455327987671e+00 8.20448780059814e+00 420 
-1.69783794879913e+00 7.86758288741112e-02 8.19883632659912e+00 421 
-9.79564487934113e-01 1.06918081641197e-01 8.11143302917480e+00 422 
-1.69277489185333e+00 4.39166575670242e-02 8.19713592529297e+00 423 
-9.32536423206329e-01 -1.36890053749084e-01 8.19947719573975e+00 424 
-1.10488021373749e+00 -9.96873736381531e-01 8.15508937835693e+00 425 
-2.20846727490425e-01 5.83640992641449e-01 8.18459987640381e+00 427 
-1.29798471927643e+00 4.52367067337036e-01 8.19954490661621e+00 428 
5.92834115028381e-01 -1.08690047264099e+00 8.18548583984375e+00 430 
-8.55666041374207e-01 -2.29553341865540e+00 8.10189914703369e+00 431 
1.46517765522003e+00 -2.39339351654053e+00 8.04460906982422e+00 432 
6.13835692405701e-01 6.86170339584351e-01 8.18173408508301e+00 433 
-1.55107402801514e+00 4.60086241364479e-02 8.16489219665527e+00 434 
-9.27647531032562e-01 -1.33986398577690e-01 8.19466400146484e+00 435 
-6.97578608989716e-01 -1.93187728524208e-01 8.19295787811279e+00 436 
-9.67126190662384e-01 -7.56102055311203e-02 8.19526290893555e+00 437 
-1.72906589508057e+00 -7.30768620967865e-01 8.19659233093262e+00 438 
-8.13102722167969e-01 -2.37536478042603e+00 8.11246967315674e+00 439 
-9.98373985290527e-01 -2.47822880744934e+00 8.19885826110840e+00 440 
1.67235302925110e+00 -2.32966732978821e+00 8.17995738983154e+00 441 
1.72922086715698e+00 -2.36035346984863e+00 8.18006706237793e+00 442 
1.09154844284058e+00 1.26540079712868e-01 8.19487571716309e+00 443 
-1.47443485260010e+00 -7.48728811740875e-01 8.13891696929932e+00 444 
1.30069780349731e+00 -8.12660098075867e-01 8.18181419372559e+00 445 
4.50714491307735e-02 1.59050673246384e-01 8.19916439056396e+00 446 
-1.70757246017456e+00 -7.31036424636841e-01 8.19777107238770e+00 447 
-1.06679546833038e+00 3.08800280094147e-01 8.05496215820312e+00 448 
1.47069185972214e-01 -2.71931499242783e-01 8.19398593902588e+00 449 
1.26859617233276e+00 -3.47477763891220e-01 8.16965293884277e+00 450 
-3.54133844375610e-01 4.61705982685089e-01 8.17605304718018e+00 451 
-1.01836371421814e+00 6.41884282231331e-02 8.11208152770996e+00 452 
3.70172381401062e-01 -8.57745110988617e-01 8.17587280273438e+00 455 
-1.37826550006866e+00 5.41584968566895e-01 8.18876361846924e+00 456 
-1.36566901206970e+00 1.43809139728546e-01 8.11139011383057e+00 457 
7.25023448467255e-01 -5.04189908504486e-01 8.18508243560791e+00 459 
-8.25524270534515e-01 -1.81816554069519e+00 8.19515228271484e+00 460 
-3.60671728849411e-01 -1.13037908077240e+00 8.13836002349854e+00 462 
5.99813342094421e-01 -1.49959754943848e+00 8.08778285980225e+00 463 
-1.67817056179047e+00 4.94176208972931e-01 8.19914436340332e+00 464 
-6.20930314064026e-01 -4.36057984828949e-01 8.19077968597412e+00 465 
-1.50456583499908e+00 -1.69032049179077e+00 8.06988620758057e+00 466 
2.09470704197884e-01 -3.64414863288403e-02 8.18856811523438e+00 467 
1.68415236473083e+00 -4.49596494436264e-01 8.15955543518066e+00 469 
-1.14889836311340e+00 -7.19464838504791e-01 8.12901878356934e+00 470 
-1.66122972965240e-01 -7.88184285163879e-01 8.15660667419434e+00 471 
-4.95421886444092e-01 -1.92282974720001e+00 8.11787796020508e+00 472 
1.22988927364349e+00 -2.11514425277710e+00 8.08638954162598e+00 473 
1.36438369750977e+00 1.46901160478592e-01 8.12258243560791e+00 474 
-9.59555387496948e-01 -5.02644777297974e-01 8.16789245605469e+00 475 
1.19657790660858e+00 -2.98256129026413e-01 8.10419082641602e+00 476 
-9.17573571205139e-01 -8.94772112369537e-01 8.19743061065674e+00 477 
-1.29797506332397e+00 -2.04192614555359e+00 8.20469760894775e+00 478 
-1.13914513587952e+00 -7.86136150360107e-01 8.19704246520996e+00 479 
-4.50597941875458e-01 -6.60971760749817e-01 8.19159412384033e+00 481 
1.34509873390198e+00 -5.61319470405579e-01 8.18464946746826e+00 482 
1.44026410579681e+00 -5.05033493041992e-01 8.18963050842285e+00 483 
4.38457578420639e-01 7.00389027595520e-01 8.19765758514404e+00 484 
-1.59494006633759e+00 4.10576224327087e-01 8.10156059265137e+00 485 
2.97650545835495e-01 2.80593186616898e-01 8.18837261199951e+00 486 
-1.45262229442596e+00 -5.24295747280121e-01 8.20153045654297e+00 487 
1.47761297225952e+00 -2.32762098312378e+00 8.09756946563721e+00 489 
1.97081238031387e-01 2.55751967430115e-01 8.18929672241211e+00 490 
-1.61215865612030e+00 -2.14228606224060e+00 8.20297050476074e+00 491 
-1.29612553119659e+00 -2.35381627082825e+00 8.19871044158936e+00 492 
1.68118023872375e+00 -2.41766881942749e+00 8.18109512329102e+00 493 
1.60707294940948e+00 -6.45530372858047e-02 8.18097591400146e+00 494 
-3.04948002099991e-01 -5.44616401195526e-01 8.19753360748291e+00 495 
7.25296080112457e-01 -5.04326283931732e-01 8.18517684936523e+00 496 
9.66345131397247e-01 -5.48324048519135e-01 8.10542201995850e+00 497 
-1.55001893639565e-01 -1.31112492084503e+00 8.12748622894287e+00 498 
-6.74676120281219e-01 -1.89434230327606e+00 8.17431354522705e+00 499 
8.29398214817047e-01 -2.16391396522522e+00 8.03822708129883e+00 500 
5.41612863540649e-01 -2.55194211006165e+00 8.18428134918213e+00 501 
2.29570597410202e-01 -1.78513753414154e+00 8.13121128082275e+00 502 
1.29670608043671e+00 -1.91440081596375e+00 8.09382629394531e+00 503 
1.35463222861290e-01 6.48017466068268e-01 8.11119556427002e+00 504 
-1.08719909191132e+00 -5.95623791217804e-01 8.19804763793945e+00 505 
-8.59230458736420e-01 -6.53944373130798e-01 8.15166664123535e+00 506 
-1.37565121054649e-01 -8.29055666923523e-01 8.17841434478760e+00 507 
-1.44023132324219e+00 -9.84357059001923e-01 8.08210754394531e+00 508 
-1.47001826763153e+00 -1.57043933868408e+00 8.14369869232178e+00 509 
-1.11388266086578e+00 -1.58657920360565e+00 8.14536190032959e+00 510 
-1.61353290081024e+00 -1.72731316089630e+00 8.08613395690918e+00 511 
-3.63070443272591e-02 -1.65371990203857e+00 8.18207073211670e+00 512 
1.51137757301331e+00 -2.44627642631531e+00 8.09560871124268e+00 513 
6.64214134216309e-01 5.44625461101532e-01 8.19769859313965e+00 515 
-1.72146463394165e+00 2.94900059700012e-01 8.20046806335449e+00 516 
-1.12255287170410e+00 2.28203669190407e-01 8.07474994659424e+00 517 
1.20106212794781e-01 3.11829507350922e-01 8.09523487091064e+00 518 
3.67724120616913e-01 3.52334827184677e-01 8.19285488128662e+00 519 
-6.74856066703796e-01 -1.46538950502872e-02 8.18069076538086e+00 520 
-8.53900671005249e-01 -6.41878366470337e-01 8.14986991882324e+00 521 
-8.30919027328491e-01 -8.18292796611786e-01 8.14176464080811e+00 522 
-9.89260733127594e-01 -1.12439870834351e+00 8.16462612152100e+00 523 
-1.36417138576508e+00 -1.48988699913025e+00 8.15185070037842e+00 524 
-1.21387267112732e+00 -1.55672037601471e+00 8.13122081756592e+00 526 
-1.21481466293335e+00 -1.56333374977112e+00 8.12585258483887e+00 527 
-1.65593242645264e+00 -2.20225667953491e+00 8.15395355224609e+00 528 
8.83597970008850e-01 -2.04232215881348e+00 8.08718013763428e+00 529 
6.44927501678467e-01 -2.30847764015198e+00 8.06520080566406e+00 530 
1.33708655834198e-01 6.42678260803223e-01 8.11540699005127e+00 531 
-1.00414073467255e+00 5.57828903198242e-01 8.15060901641846e+00 532 
-1.57697701454163e+00 3.61868768930435e-01 8.11357307434082e+00 533 
-8.82521212100983e-01 -3.97200696170330e-02 8.20115661621094e+00 534 
3.51511180400848e-01 9.38935298472643e-03 8.17414188385010e+00 535 
3.17558079957962e-01 -3.37012320756912e-01 8.09684944152832e+00 536 
1.23134303092957e+00 -5.77651739120483e-01 8.18692111968994e+00 537 
-1.64508843421936e+00 -1.39960515499115e+00 8.11375808715820e+00 538 
-1.28602218627930e+00 -1.39718842506409e+00 8.14111137390137e+00 539 
-5.41555166244507e-01 -1.46173632144928e+00 8.14167881011963e+00 540 
4.90709751844406e-01 -1.57748746871948e+00 8.15131664276123e+00 541 
-1.22333025932312e+00 -1.79552197456360e+00 8.19622707366943e+00 542 
-1.01982426643372e+00 -2.00510478019714e+00 8.12138843536377e+00 543 
-3.25159996747971e-01 -2.40744352340698e+00 8.12679958343506e+00 544 
1.30814516544342e+00 1.52906045317650e-01 8.18606376647949e+00 545 
1.08997774124146e+00 1.22405871748924e-01 8.19375896453857e+00 546 
-1.65827929973602e+00 -7.13283002376556e-01 8.20038604736328e+00 548 
-1.71310198307037e+00 -1.00564336776733e+00 8.20510101318359e+00 549 
-1.24860453605652e+00 -1.09349477291107e+00 8.14417648315430e+00 550 
-1.45376217365265e+00 -1.69257879257202e+00 8.06503963470459e+00 551 
-2.38881126046181e-01 -2.00296950340271e+00 8.20121765136719e+00 552 
1.25155234336853e+00 -1.92283523082733e+00 8.08370685577393e+00 553 
-1.13896274566650e+00 -2.18424654006958e+00 8.18687534332275e+00 554 
1.47664856910706e+00 -2.32635879516602e+00 8.09888267517090e+00 555 
-9.92124795913696e-01 7.48004093766212e-02 8.11261749267578e+00 556 
-7.51469731330872e-01 -2.00198316574097e+00 8.20120429992676e+00 558 
-9.55624401569366e-01 9.26774293184280e-02 8.10997295379639e+00 559 
1.60867452621460e+00 -6.62779882550240e-02 8.17994403839111e+00 560 
-1.23251998424530e+00 -5.48720300197601e-01 8.14657020568848e+00 561 
-6.93139195442200e-01 -6.14172160625458e-01 8.18845939636230e+00 562 
-3.65984022617340e-01 -6.99349880218506e-01 8.19606876373291e+00 563 
2.06577062606812e-01 -9.35753583908081e-01 8.18493652343750e+00 564 
9.60993885993958e-01 -1.30146491527557e+00 8.07952880859375e+00 565 
4.53777968883514e-01 -1.35789859294891e+00 8.12985706329346e+00 566 
1.48656547069550e+00 -1.97753167152405e+00 8.18246173858643e+00 568 
5.40922224521637e-01 -2.54981613159180e+00 8.18295669555664e+00 569 
-1.67239797115326e+00 -7.17629671096802e-01 8.19882106781006e+00 570 
1.20644617080688e+00 -6.76792144775391e-01 8.17845249176025e+00 571 
-1.11600506305695e+00 -2.08318281173706e+00 8.21085739135742e+00 572 
1.04441154003143e+00 7.70460486412048e-01 8.19361782073975e+00 573 
1.78663775324821e-01 -9.31636765599251e-02 8.19316482543945e+00 574 
-1.41247582435608e+00 -2.69080132246017e-01 8.17085933685303e+00 575 
1.38301336765289e+00 -3.54237109422684e-01 8.10989952087402e+00 576 
-7.18895494937897e-01 -9.91824388504028e-01 8.19512939453125e+00 577 
-2.00391724705696e-01 -1.37573289871216e+00 8.16857719421387e+00 578 
-1.28125917911530e+00 -2.32928085327148e+00 8.19894123077393e+00 579 
-5.31560719013214e-01 2.36731767654419e-01 8.13695907592773e+00 581 
-3.22548449039459e-01 1.31480440497398e-01 8.09655570983887e+00 582 
4.51411530375481e-02 -6.14114739000797e-02 8.19412231445312e+00 583 
-1.48275375366211e+00 -6.15227162837982e-01 8.16302967071533e+00 584 
-1.28579998016357e+00 -1.06465232372284e+00 8.14307594299316e+00 585 
-1.60109114646912e+00 -1.34200465679169e+00 8.12178897857666e+00 586 
-9.95148777961731e-01 -1.32073032855988e+00 8.20338630676270e+00 587 
7.09054544568062e-02 -1.28388667106628e+00 8.19816303253174e+00 588 
6.47418260574341e-01 -2.30635833740234e+00 8.06500244140625e+00 589 
-1.30751562118530e+00 -1.98481276631355e-01 8.10202407836914e+00 590 
1.32732999324799e+00 7.71010279655457e-01 8.11188888549805e+00 592 
1.03313016891479e+00 6.97064757347107e-01 8.19161891937256e+00 593 
-8.13637852668762e-01 5.45267581939697e-01 8.19650840759277e+00 594 
-1.38436651229858e+00 -1.57400965690613e-01 8.17279529571533e+00 595 
5.61392843723297e-01 -7.07570791244507e-01 8.08720779418945e+00 596 
-1.68723297119141e+00 -1.49084579944611e+00 8.11707115173340e+00 597 
9.82103943824768e-01 -1.34992098808289e+00 8.07914447784424e+00 598 
7.11349546909332e-01 -1.60533165931702e+00 8.12589550018311e+00 599 
-5.17264306545258e-01 -2.52774000167847e+00 8.11077690124512e+00 600 
-1.60870373249054e+00 4.10305559635162e-01 8.11349582672119e+00 601 
-1.25140190124512e+00 -5.31468510627747e-01 8.12957191467285e+00 604 
1.39529514312744e+00 -4.01906102895737e-01 8.11008834838867e+00 605 
1.03522384166718e+00 -6.59397959709167e-01 8.18794918060303e+00 606 
-1.46526241302490e+00 -9.24278795719147e-01 8.06914997100830e+00 607 
2.61366009712219e-01 -1.21785736083984e+00 8.19342136383057e+00 609 
-1.54019725322723e+00 -1.40185880661011e+00 8.13163661956787e+00 610 
6.89062401652336e-02 -1.27938199043274e+00 8.19754695892334e+00 611 
-4.81438875198364e-01 -1.83604192733765e+00 8.11760425567627e+00 612 
1.34764897823334e+00 7.85141170024872e-01 8.10279083251953e+00 613 
1.35586881637573e+00 6.87568187713623e-01 8.09898757934570e+00 614 
-1.00318026542664e+00 -2.14849058538675e-02 8.18729877471924e+00 615 
-1.38392448425293e+00 -1.59504264593124e-01 8.17169952392578e+00 616 
-1.28606224060059e+00 -2.05786854028702e-01 8.10080528259277e+00 617 
-6.96995317935944e-01 -1.91641286015511e-01 8.19313430786133e+00 618 
-9.89953577518463e-01 -9.90784227848053e-01 8.13194084167480e+00 619 
-9.91401731967926e-01 -1.12812077999115e+00 8.16462802886963e+00 621 
-1.58814609050751e+00 -1.24873435497284e+00 8.13843441009521e+00 622 
-1.18711483478546e+00 -1.83632218837738e+00 8.15506458282471e+00 623 
1.36758133769035e-01 6.51357233524323e-01 8.10910606384277e+00 624 
-5.16225636005402e-01 4.84991133213043e-01 8.18082904815674e+00 625 
1.02177131175995e+00 4.30271863937378e-01 8.10736083984375e+00 626 
1.53036940097809e+00 4.26145762205124e-01 8.12040424346924e+00 627 
-1.13228350877762e-01 9.77790579199791e-02 8.19331073760986e+00 628 
2.74531751871109e-01 5.80148659646511e-02 8.17074775695801e+00 629 
-6.88248798251152e-02 -5.81277489662170e-01 8.11038970947266e+00 630 
-1.70741045475006e+00 -9.61657166481018e-01 8.15488338470459e+00 631 
2.61991381645203e-01 -1.19648432731628e+00 8.19109821319580e+00 632 
-1.63639378547668e+00 -1.37443459033966e+00 8.11603832244873e+00 633 
4.91104811429977e-01 -1.57896673679352e+00 8.15130805969238e+00 634 
-1.40527296066284e+00 -1.87711381912231e+00 8.12558746337891e+00 635 
1.17550396919250e+00 -2.46568274497986e+00 8.08202743530273e+00 637 
-1.37691617012024e+00 5.45604825019836e-01 8.18799495697021e+00 638 
9.44225907325745e-01 5.67815840244293e-01 8.10755729675293e+00 639 
1.19303166866302e-01 3.08431237936020e-01 8.09583282470703e+00 640 
-1.15562939643860e+00 -2.54162818193436e-01 8.05154800415039e+00 641 
-1.03537714481354e+00 -1.03774249553680e+00 8.18182754516602e+00 642 
7.08886459469795e-02 -1.28389823436737e+00 8.19798564910889e+00 643 
-1.00161111354828e+00 -1.84569716453552e+00 8.11521625518799e+00 644 
7.76729285717010e-01 4.41430322825909e-02 8.14026832580566e+00 645 
-7.23894894123077e-01 -2.05463266372681e+00 8.19338321685791e+00 646 
-1.38346874713898e+00 -2.53230118751526e+00 8.12765502929688e+00 647 
-5.43417394161224e-01 2.92575925588608e-01 8.15979194641113e+00 648 
-2.46620237827301e-01 -3.51875513792038e-01 8.12653255462646e+00 649 
1.68862390518188e+00 -2.33683919906616e+00 8.18170738220215e+00 650 
-6.23213231563568e-01 -4.28524136543274e-01 8.19501972198486e+00 651 
-1.47850131988525e+00 -1.10572230815887e+00 8.08988666534424e+00 652 
1.42774486541748e+00 -1.85138630867004e+00 8.08504104614258e+00 653 
-1.54292798042297e+00 -2.35588765144348e+00 8.20734310150146e+00 654 
1.17504608631134e+00 -2.32316708564758e+00 8.09119796752930e+00 655 
-1.31608986854553e+00 4.96938854455948e-01 8.20298004150391e+00 656 
-1.00923633575439e+00 4.57328706979752e-01 8.19751834869385e+00 657 
-1.68874311447144e+00 -2.73727327585220e-01 8.19812965393066e+00 658 
-1.69425702095032e+00 -2.74629712104797e-01 8.19874954223633e+00 659 
-7.21312820911407e-01 -7.87083506584167e-01 8.19464874267578e+00 660 
1.16446936130524e+00 -2.30893373489380e+00 8.09167671203613e+00 661 
1.51675686240196e-01 -2.42903208732605e+00 8.16716861724854e+00 662 
1.30056798458099e+00 3.51871997117996e-01 8.12927150726318e+00 663 
-1.68017864227295e+00 -4.85493779182434e-01 8.19964122772217e+00 664 
1.48571968078613e+00 -1.77092802524567e+00 8.18638134002686e+00 665 
-1.22331425547600e-01 -2.08867406845093e+00 8.12490177154541e+00 666 
-1.51933288574219e+00 -2.38539505004883e+00 8.20826625823975e+00 667 
1.21541905403137e+00 4.43161934614182e-01 8.18424797058105e+00 668 
1.23029792308807e+00 4.05630230903625e-01 8.18863010406494e+00 669 
-1.58017575740814e+00 -5.11486172676086e-01 8.19857692718506e+00 670 
1.14138638973236e+00 -2.27825284004211e+00 8.09226322174072e+00 671 
-9.02903616428375e-01 -2.50808310508728e+00 8.12129497528076e+00 672 
1.22704267501831e+00 -9.42191481590271e-01 8.18675231933594e+00 673 
-9.76096034049988e-01 -2.47842097282410e+00 8.20093154907227e+00 674 
8.84896516799927e-01 -2.44859242439270e+00 8.18754100799561e+00 675 
1.12318384647369e+00 6.01645648479462e-01 8.19123554229736e+00 676 
-1.35978138446808e+00 2.93390471488237e-02 8.10038375854492e+00 678 
-9.31262791156769e-01 -1.36988550424576e-01 8.19910717010498e+00 679 
-3.89032125473022e-01 -1.15581405162811e+00 8.15929031372070e+00 680 
6.78699538111687e-02 -1.22445118427277e+00 8.19298076629639e+00 681 
-2.50745534896851e-01 -1.29731404781342e+00 8.09982681274414e+00 682 
-7.76877701282501e-01 -1.44978296756744e+00 8.19676399230957e+00 683 
-1.46843123435974e+00 -1.62176930904388e+00 8.18334102630615e+00 684 
-1.04212474822998e+00 -1.76654219627380e+00 8.12765502929688e+00 685 
-1.16710960865021e+00 -1.79084825515747e+00 8.15347003936768e+00 686 
-1.48062849044800e+00 -1.93873262405396e+00 8.20426845550537e+00 687 
-1.36026835441589e+00 -2.09191060066223e+00 8.14910125732422e+00 688 
-1.20536243915558e+00 -2.24986767768860e+00 8.09985828399658e+00 689 
-1.47190675139427e-01 -2.56371235847473e+00 8.20614433288574e+00 690 
-1.24344396591187e+00 4.13542270660400e-01 8.20227241516113e+00 691 
8.36469054222107e-01 -5.19153922796249e-02 8.14000511169434e+00 692 
1.26342689990997e+00 -8.81222188472748e-01 8.18658924102783e+00 693 
6.96459829807281e-01 -1.59034788608551e+00 8.11802768707275e+00 694 
-9.40395236015320e-01 2.60090827941895e-02 8.11239242553711e+00 695 
-1.00567018985748e+00 -5.84278345108032e-01 8.15133762359619e+00 696 
-1.11648297309875e+00 -6.06272280216217e-01 8.19647598266602e+00 697 
4.77580726146698e-01 -6.47963583469391e-01 8.11600399017334e+00 698 
-6.57957792282104e-01 -7.84642875194550e-01 8.14942932128906e+00 699 
-4.54141706228256e-01 -1.05567812919617e+00 8.19662094116211e+00 700 
2.29826837778091e-01 -1.19814693927765e+00 8.18525409698486e+00 701 
-1.60415709018707e-01 -1.25625526905060e+00 8.11256313323975e+00 702 
-1.63693213462830e+00 -1.38529396057129e+00 8.11578464508057e+00 703 
-8.20715725421906e-01 -1.55369651317596e+00 8.18736553192139e+00 704 
1.62341713905334e+00 -1.85543727874756e+00 8.08426666259766e+00 705 
6.51856601238251e-01 7.22899138927460e-01 8.17993736267090e+00 706 
1.54741668701172e+00 3.86996328830719e-01 8.12212848663330e+00 707 
-1.29806077480316e+00 -8.31464976072311e-02 8.10043334960938e+00 708 
-1.25332868099213e+00 -9.70578193664551e-01 8.19454956054688e+00 710 
-1.42498278617859e+00 -1.03071343898773e+00 8.09559440612793e+00 711 
9.65226948261261e-01 -1.27383494377136e+00 8.06336116790771e+00 712 
-1.14107716083527e+00 -1.89503204822540e+00 8.18215942382812e+00 713 
-1.21176958084106e+00 -4.43867556750774e-02 8.19628810882568e+00 716 
4.27134722471237e-01 -6.28862619400024e-01 8.11364650726318e+00 717 
-1.01300132274628e+00 -8.03261637687683e-01 8.13387489318848e+00 718 
-1.46686720848083e+00 -9.12559032440186e-01 8.06912517547607e+00 719 
-7.04975903034210e-01 -9.68479037284851e-01 8.19536685943604e+00 720 
6.69329345226288e-01 -1.00313246250153e+00 8.10006046295166e+00 721 
-3.77349376678467e-01 -1.13758146762848e+00 8.14327144622803e+00 722 
-7.54238545894623e-01 -1.22247564792633e+00 8.10921382904053e+00 723 
2.29703590273857e-01 -1.20082354545593e+00 8.18608379364014e+00 724 
-5.98267436027527e-01 -1.42191171646118e+00 8.14362716674805e+00 725 
-1.23880791664124e+00 -1.55880081653595e+00 8.12543106079102e+00 726 
1.83780360966921e-02 -1.61251688003540e+00 8.18258190155029e+00 727 
-5.97295403480530e-01 -1.76794326305389e+00 8.12391376495361e+00 728 
-1.64038169384003e+00 -1.06444537639618e+00 8.17188644409180e+00 729 
-8.27203035354614e-01 -1.55245733261108e+00 8.18730545043945e+00 730 
-8.62639546394348e-01 -1.69311177730560e+00 8.20102310180664e+00 731 
-4.79266762733459e-01 -1.83580875396729e+00 8.11728477478027e+00 733 
6.20232880115509e-01 -2.14491391181946e+00 8.06239318847656e+00 735 
9.31205928325653e-01 5.98852694034576e-01 8.10622024536133e+00 736 
1.55227410793304e+00 -2.33636051416397e-01 8.09224510192871e+00 737 
6.89804434776306e-01 -4.80365157127380e-01 8.19155597686768e+00 738 
-3.53888303041458e-01 -1.78936493396759e+00 8.20261096954346e+00 739 
1.72574833035469e-01 -1.92755508422852e+00 8.12457656860352e+00 740 
-7.43903145194054e-02 5.14015555381775e-01 8.19460868835449e+00 741 
-9.97259557247162e-01 7.53519237041473e-02 8.11034488677979e+00 742 
1.10329830646515e+00 1.73075556755066e-01 8.10838699340820e+00 743 
-2.26655930280685e-01 4.35353331267834e-02 8.09769535064697e+00 744 
-9.97798383235931e-01 -2.73915454745293e-02 8.18345928192139e+00 745 
-1.37691140174866e+00 -5.95762372016907e-01 8.15134334564209e+00 746 
-1.17911815643311e+00 -1.14404308795929e+00 8.13091468811035e+00 747 
-9.88755226135254e-01 -1.32733261585236e+00 8.20302677154541e+00 748 
6.23339295387268e-01 -1.43447136878967e+00 8.19328117370605e+00 749 
-1.35907828807831e+00 -1.82593297958374e+00 8.14748382568359e+00 750 
-1.29786646366119e+00 -2.13993668556213e+00 8.13282775878906e+00 751 
1.23928189277649e+00 -2.10176587104797e+00 8.08595275878906e+00 752 
-1.38964760303497e+00 -2.34290647506714e+00 8.13669300079346e+00 753 
4.61701214313507e-01 3.17448407411575e-01 8.18950462341309e+00 754 
5.99409937858582e-01 -1.75001010298729e-01 8.19043350219727e+00 755 
-3.74911814928055e-01 5.35337865352631e-01 8.18044757843018e+00 756 
-1.54420697689056e+00 -2.40827980451286e-03 8.16579818725586e+00 757 
-9.75847840309143e-01 9.56695992499590e-03 8.11043262481689e+00 758 
2.07171320915222e-01 -9.39542174339294e-01 8.18480396270752e+00 759 
-7.32230544090271e-01 -1.22858154773712e+00 8.11209583282471e+00 760 
1.30064225196838e+00 -1.10569202899933e+00 8.20091629028320e+00 761 
-2.92152374982834e-01 -1.24826645851135e+00 8.18055820465088e+00 762 
-9.87371683120728e-01 -2.27418732643127e+00 8.16041564941406e+00 763 
2.66579091548920e-02 -1.43138859421015e-02 8.19411277770996e+00 764 
6.60392045974731e-01 -5.96041679382324e-02 8.14000129699707e+00 765 
-1.73626410961151e+00 -3.34559947252274e-01 8.19735431671143e+00 766 
1.67189967632294e+00 -1.51275530457497e-01 8.11253356933594e+00 767 
1.71559035778046e+00 -2.29467606544495e+00 8.17856693267822e+00 768 
1.69651770591736e+00 -2.48644542694092e+00 8.18077754974365e+00 769 
-1.01606929302216e+00 2.73528307676315e-01 8.08498954772949e+00 770 
-1.72429656982422e+00 -6.80390238761902e-01 8.19899463653564e+00 771 
-1.51372098922729e+00 -2.39092874526978e+00 8.20623683929443e+00 772 
1.15206313133240e+00 -2.29235863685608e+00 8.09220027923584e+00 773 
-1.11646842956543e+00 -1.98791718482971e+00 8.15334415435791e+00 774 
-1.64014387130737e+00 -2.19362831115723e+00 8.20029449462891e+00 775 
-1.28896796703339e+00 -2.08722874522209e-01 8.10178565979004e+00 776 
-1.72783339023590e+00 -7.36751735210419e-01 8.19618892669678e+00 777 
4.08002048730850e-01 -1.92936420440674e+00 8.19447326660156e+00 779 
-1.51515436172485e+00 -1.17004680633545e+00 8.12403202056885e+00 780 
1.61203551292419e+00 -1.78436243534088e+00 8.18377208709717e+00 781 
-1.50907611846924e+00 -1.15922129154205e+00 8.12360477447510e+00 782 
1.56656515598297e+00 -2.49073314666748e+00 8.14042758941650e+00 783 
7.44588851928711e-01 -2.03581309318542e+00 8.06599140167236e+00 784 
1.66246771812439e+00 -1.75188100337982e+00 8.18362331390381e+00 785 
-9.42163228988647e-01 -2.19596004486084e+00 8.20320606231689e+00 786 
1.40857136249542e+00 -2.02322578430176e+00 8.09067344665527e+00 787 
-1.56175410747528e+00 -2.33513045310974e+00 8.21255016326904e+00 788 
6.31491661071777e-01 1.90614685416222e-02 8.14307689666748e+00 789 
5.92648908495903e-02 -2.79979079961777e-01 8.12868881225586e+00 790 
-1.25739276409149e+00 -5.42188107967377e-01 8.12756729125977e+00 791 
7.05789029598236e-01 -4.65866267681122e-01 8.18613815307617e+00 792 
-7.44941830635071e-01 -8.12313795089722e-01 8.15307903289795e+00 793 
-1.71271538734436e+00 -1.20667302608490e+00 8.09643650054932e+00 794 
-9.92040872573853e-01 -1.22405576705933e+00 8.12961769104004e+00 795 
-1.62568008899689e+00 -1.35355389118195e+00 8.11634540557861e+00 796 
-9.32367503643036e-01 -2.21168851852417e+00 8.19661998748779e+00 797 
6.78746402263641e-01 -3.62357884645462e-01 8.18889808654785e+00 798 
-1.16807043552399e+00 -1.12324726581573e+00 8.13108634948730e+00 799 
-1.25896179676056e+00 -1.29640460014343e+00 8.14446258544922e+00 800 
-9.88984644412994e-01 -1.29308891296387e+00 8.20324802398682e+00 801 
1.12797188758850e+00 -1.95449852943420e+00 8.08451461791992e+00 802 
1.03114867210388e+00 -1.97003853321075e+00 8.18816089630127e+00 803 
-1.26641738414764e+00 -2.14140963554382e+00 8.14501762390137e+00 804 
-1.65574383735657e+00 -2.21620845794678e+00 8.15403842926025e+00 805 
-1.57828068733215e+00 -2.50461816787720e+00 8.11530685424805e+00 806 
-2.56944388151169e-01 -2.99468278884888e-01 8.12283897399902e+00 807 
3.32602292299271e-01 -7.73171246051788e-01 8.09903430938721e+00 808 
4.10478375852108e-02 -1.63056993484497e+00 8.19639968872070e+00 809 
-1.36369872093201e+00 -1.82333350181580e+00 8.14729690551758e+00 810 
-1.38860189914703e+00 -2.52273964881897e+00 8.13302326202393e+00 811 
1.62840819358826e+00 6.50815427303314e-01 8.18317890167236e+00 812 
-1.60333740711212e+00 3.68564724922180e-01 8.11421871185303e+00 813 
-6.55012801289558e-02 4.92192715406418e-01 8.19469547271729e+00 814 
-7.05752313137054e-01 3.98028492927551e-01 8.18179416656494e+00 815 
-8.10531914234161e-01 -5.52149191498756e-02 8.20122337341309e+00 816 
-1.19272565841675e+00 -1.67120292782784e-01 8.20052242279053e+00 817 
1.55024218559265e+00 4.21567866578698e-03 8.10855674743652e+00 818 
-2.33640432357788e-01 -6.27344012260437e-01 8.12944698333740e+00 819 
-7.22797274589539e-01 -7.94330954551697e-01 8.19254016876221e+00 820 
-1.10665965080261e+00 -1.39330720901489e+00 8.18644237518311e+00 821 
1.69207561016083e+00 -1.27481162548065e+00 8.18010330200195e+00 822 
-1.14961802959442e-01 -1.64743876457214e+00 8.10291194915771e+00 823 
-3.95894527435303e-01 -2.24199795722961e+00 8.11139011383057e+00 824 
-1.33029699325562e+00 -2.43033480644226e+00 8.20391845703125e+00 825 
-1.10020804405212e+00 -2.47325706481934e+00 8.19716167449951e+00 826 
-1.70356416702271e+00 -4.68479730188847e-02 8.20375061035156e+00 827 
-5.67989051342010e-01 -2.34432315826416e+00 8.12631130218506e+00 828 
-1.43703794479370e+00 8.86348783969879e-02 8.17157554626465e+00 829 
5.26868224143982e-01 -2.39712461829185e-01 8.09727764129639e+00 830 
5.95207333564758e-01 -1.53367924690247e+00 8.10965919494629e+00 831 
6.42112135887146e-01 -1.62516701221466e+00 8.10801696777344e+00 832 
8.01825150847435e-02 8.70725214481354e-02 8.19820499420166e+00 834 
-1.68062961101532e+00 4.98223423957825e-01 8.19862365722656e+00 835 
-1.29276978969574e+00 -1.62221348285675e+00 8.14389801025391e+00 836 
-1.36272454261780e+00 1.22103422880173e-01 8.10933971405029e+00 837 
-1.01996374130249e+00 -1.57257449626923e+00 8.19546794891357e+00 838 
-1.81618213653564e+00 -6.87401741743088e-02 8.20311546325684e+00 839 
-9.40450370311737e-01 2.45731081813574e-02 8.11382293701172e+00 840 
5.65251111984253e-01 -1.02625620365143e+00 8.18545818328857e+00 841 
-1.17477846145630e+00 3.94811481237411e-01 8.19819927215576e+00 842 
-8.99311527609825e-02 -1.92695248126984e+00 8.19338417053223e+00 843 
4.00196522474289e-01 6.38969063758850e-01 8.11540794372559e+00 845 
-5.13188950717449e-02 -3.04869383573532e-01 8.13031196594238e+00 846 
-1.82575345039368e+00 -1.70917272567749e-01 8.20320129394531e+00 847 
-1.82258069515228e+00 -7.01719373464584e-02 8.20460033416748e+00 848 
2.08455041050911e-01 -4.58831220865250e-01 8.18727493286133e+00 849 
-6.98885560035706e-01 -1.93627595901489e-01 8.19266700744629e+00 850 
2.18553662300110e-01 -2.09971833229065e+00 8.20092868804932e+00 851 
-1.41922605037689e+00 -1.03523337841034e+00 8.09329128265381e+00 852 
4.74628865718842e-01 -1.72011661529541e+00 8.12631416320801e+00 853 
9.73244234919548e-02 3.66621166467667e-01 8.12664699554443e+00 854 
-1.09663343429565e+00 5.12264192104340e-01 8.15495491027832e+00 855 
-4.33784604072571e-01 -2.50291466712952e-01 8.18209743499756e+00 856 
-1.11011159420013e+00 -9.77370381355286e-01 8.15653705596924e+00 857 
5.71313917636871e-01 -1.42610907554626e+00 8.19490814208984e+00 858 
-1.86986267566681e+00 4.77337121963501e-01 8.19727325439453e+00 859 
-6.04982972145081e-01 -2.36251950263977e+00 8.12745285034180e+00 860 
5.67271590232849e-01 5.88587403297424e-01 8.12666893005371e+00 862 
-1.61040097475052e-01 2.49142602086067e-01 8.19332981109619e+00 863 
-1.32106447219849e+00 -1.56104406341910e-02 8.10162544250488e+00 864 
3.67276549339294e-01 -1.15072679519653e+00 8.10862922668457e+00 865 
-5.37029683589935e-01 -1.41266620159149e+00 8.14318656921387e+00 866 
-1.16078794002533e+00 -1.79095613956451e+00 8.15809154510498e+00 867 
-1.59025442600250e+00 4.16241645812988e-01 8.11133670806885e+00 868 
-8.69323730468750e-01 -1.67741760611534e-01 8.12491703033447e+00 869 
-1.62563562393188e-01 -8.05322051048279e-01 8.15665245056152e+00 870 
4.88788902759552e-01 -1.15862834453583e+00 8.18804359436035e+00 871 
-1.35965919494629e+00 -1.47168254852295e+00 8.14402675628662e+00 872 
-1.22843694686890e+00 -1.84112083911896e+00 8.12219905853271e+00 873 
-1.13473784923553e+00 -3.24915021657944e-01 8.17188453674316e+00 874 
1.51137694716454e-01 -2.78576016426086e-01 8.19376850128174e+00 875 
-1.01761317253113e+00 -1.97731184959412e+00 8.11945915222168e+00 877 
9.18261259794235e-02 6.50128960609436e-01 8.10385513305664e+00 878 
-8.27895879745483e-01 4.35669332742691e-01 8.19753360748291e+00 879 
-3.42178672552109e-01 1.21688336133957e-01 8.18490314483643e+00 880 
6.94995999336243e-01 1.21879056096077e-01 8.11722564697266e+00 881 
-1.21342766284943e+00 -5.18862903118134e-01 8.12910461425781e+00 882 
-1.46759295463562e+00 -6.16557657718658e-01 8.16288661956787e+00 883 
-1.41202318668365e+00 -1.68751966953278e+00 8.08692646026611e+00 884 
-8.39396655559540e-01 4.91917371749878e-01 8.19690799713135e+00 885 
-8.90100061893463e-01 3.82359251379967e-02 8.11125278472900e+00 886 
-8.63616347312927e-01 -1.15739059448242e+00 8.18100643157959e+00 887 
-9.91945683956146e-01 -1.32402670383453e+00 8.20322895050049e+00 888 
-1.26959753036499e+00 -2.13919138908386e+00 8.14317512512207e+00 889 
-1.26963257789612e+00 -2.14617228507996e+00 8.14501571655273e+00 890 
-9.68710720539093e-01 -7.79254585504532e-02 8.19744682312012e+00 891 
3.21228653192520e-01 -3.39345157146454e-01 8.09682559967041e+00 892 
-9.75465178489685e-01 -4.38765257596970e-01 8.14251708984375e+00 893 
-1.53086674213409e+00 -2.10338544845581e+00 8.19965648651123e+00 895 
-4.75945413112640e-01 -2.24144577980042e+00 8.14134311676025e+00 896 
5.37361621856689e-01 -2.54801440238953e+00 8.18381881713867e+00 897 
-9.96266722679138e-01 -4.12989817559719e-02 8.18263053894043e+00 898 
-2.09777116775513e-01 -6.22710824012756e-01 8.12926292419434e+00 899 
-1.24209129810333e+00 -5.48318207263947e-01 8.13985824584961e+00 900 
-1.06965541839600e+00 -1.99578249454498e+00 8.11961078643799e+00 901 
-9.33509826660156e-01 2.28256843984127e-02 8.11112689971924e+00 902 
-1.08096122741699e+00 -5.80318093299866e-01 8.20152473449707e+00 903 
-1.39491534233093e+00 -1.01417922973633e+00 8.09004497528076e+00 904 
-6.35556817054749e-01 -1.01631534099579e+00 8.19582939147949e+00 905 
-1.04777073860168e+00 -1.31626665592194e+00 8.14885711669922e+00 906 
-1.37917900085449e+00 5.39819717407227e-01 8.18510246276855e+00 907 
4.26243364810944e-01 5.19888997077942e-01 8.12553596496582e+00 908 
-1.61393976211548e+00 -1.23550519347191e-01 8.19883632659912e+00 909 
-7.13832736015320e-01 -1.32622385025024e+00 8.10973644256592e+00 910 
-1.46641063690186e+00 -2.01484173536301e-01 8.17239761352539e+00 911 
5.10635733604431e-01 -2.64422237873077e-01 8.09367370605469e+00 912 
-8.94994199275970e-01 -4.30087804794312e-01 8.13274860382080e+00 913 
-1.44009673595428e+00 -9.87432241439819e-01 8.08175277709961e+00 914 
-1.70985317230225e+00 -1.53155028820038e+00 8.11865997314453e+00 915 
-5.62539398670197e-01 -5.77190220355988e-01 8.19530963897705e+00 916 
5.72696626186371e-01 -1.02862548828125e+00 8.18677330017090e+00 917 
-8.91400039196014e-01 -3.95848125219345e-01 8.13681697845459e+00 918 
-9.86615419387817e-02 -1.91920256614685e+00 8.19263267517090e+00 919 
-3.27716261148453e-01 -6.97051227092743e-01 8.19097232818604e+00 920 
-1.09815645217896e+00 -8.30547451972961e-01 8.12368488311768e+00 921 
-1.00596356391907e+00 -1.49482154846191e+00 8.19995498657227e+00 923 
-1.60499417781830e+00 -1.72941422462463e+00 8.08565330505371e+00 925 
-1.25246429443359e+00 4.66400980949402e-01 8.20379638671875e+00 926 
-1.10137951374054e+00 -1.14717841148376e+00 8.13607311248779e+00 927 
2.40149036049843e-01 -1.75643110275269e+00 8.14816951751709e+00 928 
-1.60483729839325e+00 -1.29090976715088e+00 8.13129043579102e+00 929 
-1.42450296878815e+00 -6.42020165920258e-01 8.17000007629395e+00 930 
4.50706034898758e-01 5.42342662811279e-01 8.11845779418945e+00 931 
-6.96683168411255e-01 3.28106254339218e-01 8.18120574951172e+00 932 
-1.67073762416840e+00 -6.98496699333191e-01 8.20288562774658e+00 933 
-1.18690395355225e+00 -9.22099113464355e-01 8.20191669464111e+00 934 
4.24368083477020e-01 -1.70482742786407e+00 8.13562583923340e+00 935 
-1.50136542320251e+00 -1.13553845882416e+00 8.08367824554443e+00 936 
5.69246590137482e-01 -9.53765630722046e-01 8.08776187896729e+00 939 
-1.56188976764679e+00 -2.45612859725952e+00 8.19664382934570e+00 940 
-1.26579630374908e+00 5.43029487133026e-01 8.20616340637207e+00 941 
3.05584520101547e-01 -3.14506500959396e-01 8.09672355651855e+00 942 
4.46907877922058e-01 -3.75250369310379e-01 8.18979263305664e+00 943 
-1.32417309284210e+00 8.26895684003830e-02 8.10958480834961e+00 945 
1.50223657488823e-01 -1.78939700126648e+00 8.15831279754639e+00 946 
-1.18488036096096e-01 -1.92988348007202e+00 8.19239521026611e+00 947 
-1.42128098011017e+00 -1.32047748565674e+00 8.13615036010742e+00 949 
-1.03944933414459e+00 -2.34366893768311e+00 8.19720840454102e+00 950 
-7.76460587978363e-01 -2.51218533515930e+00 8.12068462371826e+00 951 
5.89883029460907e-01 -2.58196687698364e+00 8.18889808654785e+00 953 
-1.54967713356018e+00 3.96774113178253e-02 8.16593170166016e+00 954 
-9.15584683418274e-01 -8.80321025848389e-01 8.19454002380371e+00 956 
-7.35558331012726e-01 -1.32262134552002e+00 8.12035751342773e+00 957 
6.16129636764526e-01 -1.42261517047882e+00 8.19314479827881e+00 958 
-1.00813961029053e+00 2.94551402330399e-01 8.08306026458740e+00 959 
-8.97091627120972e-01 -2.17249250411987e+00 8.19900608062744e+00 960 
-4.46575939655304e-01 -6.63356781005859e-01 8.19191455841064e+00 961 
-1.52894914150238e+00 -3.11876147985458e-01 8.08517837524414e+00 962 
-4.33824598789215e-01 -2.23056721687317e+00 8.13926792144775e+00 963 
1.18953352794051e-02 -6.55242562294006e-01 8.08118629455566e+00 966 
1.34776854515076e+00 -3.40400636196136e-01 8.10193920135498e+00 967 
1.45419347286224e+00 -2.99793511629105e-01 8.19608402252197e+00 969 
-1.77325844764709e+00 -3.71777981519699e-01 8.19824504852295e+00 971 
9.80044424533844e-01 3.93512815237045e-01 8.10563278198242e+00 972 
1.24670195579529e+00 4.86745918169618e-03 8.19239234924316e+00 976 
-1.53142726421356e+00 -2.94690161943436e-01 8.08571910858154e+00 978 
-1.19421154260635e-01 -6.07410371303558e-01 8.16188144683838e+00 979 
-1.84739029407501e+00 2.46079057455063e-01 8.20535945892334e+00 980 
1.56720113754272e+00 6.08922779560089e-01 8.18824481964111e+00 981 
-1.77568948268890e+00 2.90956258773804e-01 8.20199012756348e+00 982 
1.13966917991638e+00 -8.97468999028206e-02 8.19296455383301e+00 984 
1.48934590816498e+00 6.08224332332611e-01 8.18839168548584e+00 985 
1.18696677684784e+00 -1.10783326625824e+00 8.18557071685791e+00 988 
2.20567900687456e-02 -4.21299040317535e-01 8.14886856079102e+00 989 
1.05913877487183e+00 9.68681097030640e-01 8.18469619750977e+00 991 
-3.26897025108337e-01 9.85656008124352e-02 8.09646034240723e+00 993 
6.14703178405762e-01 1.85457900166512e-01 8.10868358612061e+00 994 
-6.13411009311676e-01 1.42821657657623e+00 8.18932628631592e+00 995 
8.39569211006165e-01 -2.40846514701843e-01 8.19528293609619e+00 996 
1.58417236804962e+00 1.05933737754822e+00 8.15982818603516e+00 997 
-4.84484732151031e-01 1.14115715026855e+00 8.19336128234863e+00 998 
1.66287112236023e+00 7.19626486301422e-01 8.18478488922119e+00 999 
1.41461834311485e-01 2.32965064048767e+00 8.19008064270020e+00 1000 
1.15850543975830e+00 -3.20734918117523e-01 8.10194873809814e+00 1001 
9.82608675956726e-01 2.44142293930054e+00 8.19000434875488e+00 1002 
2.08326369524002e-01 -4.52066540718079e-01 8.18839073181152e+00 1003 
2.73056328296661e-02 -4.99422609806061e-01 8.14873886108398e+00 1005 
2.71999329328537e-01 5.84659576416016e-01 8.18964004516602e+00 1007 
-5.28967380523682e-01 7.76885211467743e-01 8.12202930450439e+00 1008 
1.08954167366028e+00 2.15579986572266e+00 8.18580532073975e+00 1009 
-3.61443385481834e-02 2.24538683891296e+00 8.15203952789307e+00 1010 
-5.55261194705963e-01 -1.91091984510422e-01 8.14446544647217e+00 1011 
3.51747572422028e-01 -2.48238301277161e+00 8.10897922515869e+00 1012 
1.60436189174652e+00 2.03219795227051e+00 8.12076950073242e+00 1013 
8.97686123847961e-01 -9.50047299265862e-02 8.19669723510742e+00 1014 
1.73923802375793e+00 -1.19361531734467e+00 8.18004322052002e+00 1016 
1.68561780452728e+00 1.34657637681812e-03 8.09143924713135e+00 1017 
5.72983205318451e-01 3.49425226449966e-01 8.09714317321777e+00 1018 
1.72623586654663e+00 4.86701846122742e-01 8.11351394653320e+00 1019 
5.18657028675079e-01 6.88346922397614e-01 8.19737052917480e+00 1020 
5.18354237079620e-01 1.00462639331818e+00 8.20289516448975e+00 1021 
-2.25127354264259e-01 5.91148018836975e-01 8.18869781494141e+00 1022 
9.24907624721527e-01 8.03332030773163e-01 8.13836288452148e+00 1023 
-7.88982510566711e-01 1.07009994983673e+00 8.08646869659424e+00 1024 
1.16557252407074e+00 2.33035230636597e+00 8.18940162658691e+00 1025 
8.72625112533569e-01 2.37088799476624e+00 8.19017601013184e+00 1026 
1.19789910316467e+00 2.10200238227844e+00 8.18968582153320e+00 1027 
2.73454904556274e-01 1.50483477115631e+00 8.15619564056396e+00 1029 
-3.36625099182129e-01 1.23920686542988e-01 8.09646034240723e+00 1031 
1.71246170997620e-01 1.49995672702789e+00 8.19272232055664e+00 1032 
2.21355468034744e-01 1.52867054939270e+00 8.19939517974854e+00 1033 
2.78660714626312e-01 1.46972501277924e+00 8.13600921630859e+00 1035 
9.63947594165802e-01 1.43727064132690e+00 8.18454265594482e+00 1036 
1.36840486526489e+00 1.43488883972168e+00 8.18030738830566e+00 1037 
8.36496770381927e-01 1.48634362220764e+00 8.12444686889648e+00 1038 
2.01714292168617e-01 -6.05542957782745e-01 8.16885089874268e+00 1039 
-5.34124732017517e-01 -2.00655058026314e-01 8.14875125885010e+00 1040 
-4.08792495727539e-01 8.42274427413940e-01 8.18640995025635e+00 1041 
6.45932137966156e-01 1.27390730381012e+00 8.15535736083984e+00 1043 
1.39510738849640e+00 1.90289962291718e+00 8.18188381195068e+00 1044 
9.28730487823486e-01 -1.67570516467094e-01 8.19759082794189e+00 1045 
3.31010282039642e-01 8.20377051830292e-01 8.18955230712891e+00 1046 
1.08015584945679e+00 1.34473431110382e+00 8.07494354248047e+00 1047 
4.36733439564705e-02 2.10487222671509e+00 8.08607006072998e+00 1048 
4.55009043216705e-02 2.10482454299927e+00 8.08595657348633e+00 1049 
-4.15936291217804e-01 -2.17051815986633e+00 8.19992256164551e+00 1050 
1.67515492439270e+00 -6.27658486366272e-01 8.09303760528564e+00 1051 
1.18687140941620e+00 -3.94844919443130e-01 8.10350418090820e+00 1052 
6.08562767505646e-01 6.98588490486145e-01 8.18133258819580e+00 1053 
5.98209738731384e-01 1.85617610812187e-01 8.11689662933350e+00 1054 
6.04472517967224e-01 1.91881641745567e-01 8.11228942871094e+00 1055 
-7.58217414841056e-03 1.98753878474236e-01 8.19326972961426e+00 1056 
-3.00727933645248e-01 6.15435957908630e-01 8.11299228668213e+00 1057 
-6.16170167922974e-02 1.39453172683716e+00 8.12289047241211e+00 1058 
3.48828375339508e-01 1.64022231101990e+00 8.20306110382080e+00 1059 
-3.05525928735733e-01 2.12901353836060e+00 8.10451889038086e+00 1060 
4.15884256362915e-01 2.29477810859680e+00 8.18718624114990e+00 1061 
-7.61313974857330e-01 2.33996653556824e+00 8.07884979248047e+00 1062 
1.33196198940277e+00 -1.09124243259430e+00 8.18203830718994e+00 1063 
1.61367797851562e+00 -6.67131319642067e-02 8.18426132202148e+00 1064 
7.09145545959473e-01 8.37157189846039e-01 8.18993377685547e+00 1065 
6.95145726203918e-01 2.48619031906128e+00 8.18611431121826e+00 1066 
7.48471692204475e-02 1.78302395343781e+00 8.14666080474854e+00 1067 
-1.57901018857956e-01 1.83114635944366e+00 8.20446395874023e+00 1068 
-7.43240892887115e-01 1.55950367450714e+00 8.19654560089111e+00 1069 
1.51566123962402e+00 1.67822110652924e+00 8.11718082427979e+00 1070 
7.78139948844910e-01 2.00192880630493e+00 8.18929672241211e+00 1071 
8.20735692977905e-01 2.01277375221252e+00 8.18864154815674e+00 1072 
1.97513803839684e-01 2.19188952445984e+00 8.10598468780518e+00 1073 
1.38281726837158e+00 2.40232062339783e+00 8.08251476287842e+00 1074 
1.60931801795959e+00 -1.78867113590240e+00 8.18177700042725e+00 1075 
1.18565452098846e+00 -1.10791683197021e+00 8.18478965759277e+00 1077 
-4.24169868230820e-01 -6.62633836269379e-01 8.19198703765869e+00 1078 
3.47631692886353e-01 -3.06440204381943e-01 8.09606838226318e+00 1079 
1.49384582042694e+00 -1.22435942292213e-01 8.11608600616455e+00 1080 
1.70249092578888e+00 1.59713357686996e-01 8.18885898590088e+00 1081 
4.87037226557732e-02 9.22631621360779e-01 8.11091613769531e+00 1082 
1.64276301860809e+00 1.32696902751923e+00 8.08089351654053e+00 1083 
-6.11381411552429e-01 1.73361968994141e+00 8.19536304473877e+00 1085 
-6.04108691215515e-01 1.73414707183838e+00 8.19605731964111e+00 1086 
1.04188919067383e-02 1.75241470336914e+00 8.17640781402588e+00 1087 
3.60125422477722e-01 2.09994029998779e+00 8.10192584991455e+00 1088 
4.93563979864120e-01 2.20350241661072e+00 8.09670066833496e+00 1089 
2.89191808551550e-02 -1.15159654617310e+00 8.17356681823730e+00 1090 
-5.21509885787964e-01 -1.91082298755646e-01 8.14970493316650e+00 1091 
-3.88460159301758e-01 8.54450881481171e-01 8.18621730804443e+00 1092 
-3.18618863821030e-02 8.98949205875397e-01 8.17709636688232e+00 1093 
1.52641355991364e+00 9.41015124320984e-01 8.09078884124756e+00 1094 
-6.00169539451599e-01 1.04622137546539e+00 8.08454418182373e+00 1095 
-7.54717350006104e-01 1.28288257122040e+00 8.15711212158203e+00 1096 
-8.19471955299377e-01 2.14385008811951e+00 8.19495010375977e+00 1097 
-8.07058751583099e-01 2.15067672729492e+00 8.19488906860352e+00 1098 
6.76558315753937e-01 2.53948330879211e+00 8.10832118988037e+00 1099 
3.51349174976349e-01 -1.78943514823914e+00 8.12449169158936e+00 1100 
8.66469442844391e-01 -9.82463359832764e-01 8.11656093597412e+00 1101 
1.41860175132751e+00 8.32595005631447e-02 8.12273597717285e+00 1102 
1.64324629306793e+00 9.72047969698906e-02 8.18142604827881e+00 1103 
-4.59923565387726e-01 2.57389932870865e-01 8.13640499114990e+00 1105 
1.54160892963409e+00 3.84782493114471e-01 8.11864566802979e+00 1106 
5.05802512168884e-01 5.69025039672852e-01 8.12059402465820e+00 1107 
3.60230535268784e-01 6.55657589435577e-01 8.12901210784912e+00 1108 
1.64155817031860e+00 1.01721715927124e+00 8.17720317840576e+00 1109 
1.64070010185242e+00 1.02028536796570e+00 8.17816066741943e+00 1110 
-2.84358654171228e-02 1.38409376144409e+00 8.14090061187744e+00 1111 
6.01727783679962e-01 1.48969674110413e+00 8.20917797088623e+00 1113 
1.54221510887146e+00 1.51898145675659e+00 8.10339164733887e+00 1114 
1.25648605823517e+00 1.63698482513428e+00 8.15209770202637e+00 1115 
7.89481878280640e-01 1.66065669059753e+00 8.19113445281982e+00 1116 
5.19269526004791e-01 1.66551315784454e+00 8.21016693115234e+00 1117 
2.60494928807020e-02 1.77442657947540e+00 8.20446681976318e+00 1118 
1.20270955562592e+00 2.01487469673157e+00 8.09700107574463e+00 1119 
1.49044620990753e+00 2.12320756912231e+00 8.18006610870361e+00 1120 
