ply
format ascii 1.0
element vertex 696
property double x
property double y
property double size
property short id
end_header
2.42891235351562e+03 1.07594111328125e+04 1.74357700347900e+00 350 
3.65433764648438e+03 1.22149843750000e+04 2.64685750007629e+00 351 
4.70074316406250e+03 1.25706074218750e+04 2.13596606254578e+00 352 
5.47329052734375e+03 1.28117021484375e+04 3.71625208854675e+00 361 
2.87114160156250e+03 4.22816601562500e+03 3.23643159866333e+00 362 
1.79387487792969e+03 9.94006347656250e+03 2.16738510131836e+00 366 
5.86887695312500e+03 1.05664257812500e+04 2.40889239311218e+00 367 
6.42492089843750e+03 1.29755000000000e+04 2.10098814964294e+00 368 
6.15229150390625e+03 1.11452480468750e+04 2.64704942703247e+00 375 
3.16954614257812e+03 1.19983818359375e+04 1.46461617946625e+00 377 
5.78824853515625e+03 1.27037919921875e+04 2.06247663497925e+00 378 
8.13727734375000e+03 1.06542363281250e+04 1.45695424079895e+00 388 
3.24007690429688e+03 1.17328105468750e+04 1.59514975547791e+00 389 
4.51016992187500e+03 1.29311386718750e+04 1.48427867889404e+00 391 
6.67051171875000e+03 1.09199091796875e+04 2.03463649749756e+00 398 
5.15499169921875e+03 1.20684033203125e+04 2.90954613685608e+00 409 
3.97631469726562e+03 1.01406562500000e+04 3.03223681449890e+00 413 
7.85637548828125e+03 9.17536035156250e+03 1.80873608589172e+00 416 
4.71441650390625e+03 9.71127050781250e+03 1.35287940502167e+00 427 
7.41361523437500e+03 9.71044726562500e+03 1.21451580524445e+00 428 
2.62387573242188e+03 9.70593847656250e+03 1.58155393600464e+00 433 
6.67691650390625e+03 1.12721435546875e+04 1.18098998069763e+00 435 
6.12636523437500e+03 1.14871044921875e+04 1.53965687751770e+00 436 
8.24210644531250e+03 1.26753027343750e+04 5.70010471343994e+00 444 
8.78776953125000e+03 1.25192910156250e+04 3.38179969787598e+00 447 
6.92461230468750e+03 1.01970410156250e+04 1.14341783523560e+00 448 
5.08082373046875e+03 9.97662109375000e+03 1.23341870307922e+00 451 
7.58891210937500e+03 9.47009863281250e+03 1.63007426261902e+00 456 
7.70668310546875e+03 1.04952705078125e+04 1.63057792186737e+00 457 
2.70755566406250e+03 1.26778076171875e+04 1.57762682437897e+00 459 
8.34213183593750e+03 9.49471386718750e+03 1.23380851745605e+00 464 
3.83908666992188e+03 1.13688886718750e+04 2.77065849304199e+00 467 
1.10380554199219e+03 1.21986523437500e+04 2.08127593994141e+00 468 
9.10583740234375e+02 1.12924931640625e+04 3.10222887992859e+00 474 
6.87454638671875e+03 1.21930136718750e+04 3.18526649475098e+00 475 
7.39725244140625e+03 1.28220810546875e+04 3.54046511650085e+00 479 
5.65722412109375e+03 1.27179160156250e+04 3.43846917152405e+00 481 
3.05552734375000e+03 9.61257617187500e+03 2.09083461761475e+00 484 
8.20275781250000e+03 9.76370507812500e+03 2.80819869041443e+00 485 
3.52654663085938e+03 1.06114179687500e+04 1.96452987194061e+00 486 
3.78166845703125e+03 1.06427197265625e+04 3.12919306755066e+00 490 
2.10152343750000e+03 1.29182968750000e+04 2.22693181037903e+00 497 
3.80799658203125e+03 9.68542285156250e+03 1.37924170494080e+00 504 
7.21062841796875e+03 1.23653808593750e+04 1.31402361392975e+00 505 
6.67534228515625e+03 1.26100146484375e+04 1.29805660247803e+00 506 
2.54669311523438e+03 1.00638046875000e+04 1.40681123733521e+00 515 
3.94659204101562e+03 1.05263261718750e+04 1.75289356708527e+00 518 
6.01795263671875e+03 1.10589921875000e+04 1.61341917514801e+00 520 
3.81445996093750e+03 9.69640527343750e+03 1.36829733848572e+00 531 
8.16744042968750e+03 9.88626757812500e+03 1.18958115577698e+00 533 
6.53527148437500e+03 1.10486572265625e+04 1.19316506385803e+00 534 
3.65150952148438e+03 1.22055908203125e+04 1.10689258575439e+00 536 
6.79364697265625e+03 1.07785996093750e+04 1.28420317173004e+00 556 
7.01626513671875e+03 3.51708984375000e+03 2.86244630813599e+00 557 
3.99175109863281e+02 1.18578525390625e+04 2.15614485740662e+00 560 
6.24335839843750e+03 1.25333994140625e+04 1.62672543525696e+00 562 
5.45911572265625e+03 1.28336123046875e+04 2.14051795005798e+00 563 
8.69625781250000e+03 1.24955087890625e+04 2.89747858047485e+00 570 
1.54305029296875e+03 9.62113964843750e+03 1.79498028755188e+00 573 
3.93263378906250e+03 1.14969316406250e+04 2.65268468856812e+00 574 
5.10657666015625e+03 1.08445888671875e+04 2.11896824836731e+00 582 
4.25252490234375e+03 1.13788515625000e+04 2.43785738945007e+00 583 
7.66969384765625e+03 1.13736757812500e+04 3.12712097167969e+00 590 
7.82269140625000e+03 1.12075771484375e+04 1.76690804958344e+00 595 
8.52583691406250e+03 1.06337119140625e+04 9.24277603626251e-01 603 
7.62147802734375e+03 1.22049990234375e+04 1.28441631793976e+00 604 
7.50997070312500e+02 9.70903417968750e+03 1.52781081199646e+00 613 
6.83114306640625e+03 1.09754394531250e+04 1.68566143512726e+00 615 
7.82242480468750e+03 1.12136416015625e+04 1.58510088920593e+00 616 
7.61868750000000e+03 1.13989804687500e+04 1.72323763370514e+00 617 
6.12437597656250e+03 1.14833417968750e+04 1.79817795753479e+00 618 
1.66902600097656e+03 1.04937929687500e+04 1.37749552726746e+00 626 
4.59533496093750e+03 1.09394628906250e+04 1.26385915279388e+00 628 
3.64813989257812e+03 1.11641699218750e+04 1.24357140064240e+00 629 
4.69017089843750e+03 1.26920351562500e+04 1.40935599803925e+00 630 
7.32287744140625e+03 1.15891328125000e+04 1.31332135200500e+00 641 
5.60279394531250e+03 1.03460341796875e+04 3.95054674148560e+00 648 
7.44396386718750e+03 9.59337011718750e+03 3.27066159248352e+00 656 
6.69929833984375e+03 9.78476757812500e+03 4.05448246002197e+00 657 
8.60222851562500e+03 1.13917695312500e+04 4.20016574859619e+00 658 
8.61615332031250e+03 1.13921025390625e+04 4.15515089035034e+00 659 
6.36306689453125e+03 1.29491992187500e+04 3.90378022193909e+00 660 
8.64489648437500e+03 1.19174521484375e+04 4.58172893524170e+00 664 
1.21685729980469e+03 1.04827548828125e+04 4.94520807266235e+00 668 
1.19326318359375e+03 1.05774726562500e+04 4.73906564712524e+00 669 
8.40540722656250e+03 1.20121816406250e+04 5.36888980865479e+00 670 
7.28981396484375e+03 9.82172363281250e+03 1.69559574127197e+00 691 
7.61120361328125e+03 1.10886201171875e+04 1.52783346176147e+00 708 
4.53329882812500e+03 1.23804980468750e+04 1.74172055721283e+00 709 
1.84278796386719e+03 1.00472392578125e+04 1.35924410820007e+00 736 
2.78889404296875e+03 1.26038818359375e+04 1.47402465343475e+00 738 
4.37417773437500e+03 9.92252636718750e+03 2.41238927841187e+00 741 
1.54415991210938e+03 1.11582138671875e+04 1.93797242641449e+00 743 
4.89375634765625e+03 1.10923212890625e+04 2.01692342758179e+00 744 
3.11142578125000e+03 1.05682861328125e+04 2.29235529899597e+00 754 
5.10974121093750e+03 9.78675585937500e+03 2.61457133293152e+00 756 
8.17515917968750e+03 1.07793095703125e+04 2.00695848464966e+00 757 
4.28388427734375e+03 1.12570009765625e+04 2.86008286476135e+00 764 
2.33235214233398e+02 1.21311865234375e+04 3.13230061531067e+00 767 
6.79914746093750e+03 1.02872890625000e+04 4.00682878494263e+00 770 
8.81409472656250e+03 1.23879482421875e+04 4.48944759368896e+00 771 
7.62639111328125e+03 1.14049970703125e+04 6.58832597732544e+00 776 
1.38957580566406e+02 1.00927421875000e+04 2.47887349128723e+00 812 
8.23117968750000e+03 9.86131933593750e+03 2.42255568504333e+00 813 
4.35890039062500e+03 9.97899121093750e+03 2.24522519111633e+00 814 
6.36207080078125e+03 1.11081386718750e+04 1.96683883666992e+00 816 
7.34075537109375e+03 1.12726591796875e+04 2.76883769035339e+00 817 
5.11443798828125e+03 1.27441982421875e+04 2.52855896949768e+00 819 
8.56720019531250e+03 1.08230234375000e+04 3.01969552040100e+00 827 
8.34751562500000e+03 9.48413476562500e+03 3.09699892997742e+00 835 
7.70606738281250e+03 1.05510419921875e+04 2.18948984146118e+00 837 
3.15295898437500e+03 9.78546582031250e+03 1.26231431961060e+00 845 
4.56279882812500e+03 1.19939101562500e+04 9.93165731430054e-01 846 
5.49256738281250e+03 1.17128281250000e+04 2.11469173431396e+00 856 
4.05638745117188e+03 1.19462412109375e+04 1.49082803726196e+00 875 
2.57686962890625e+03 1.11595771484375e+04 1.37634241580963e+00 881 
3.64287524414062e+03 1.22125058593750e+04 2.67820835113525e+00 892 
6.90130908203125e+03 1.20466376953125e+04 3.30402088165283e+00 893 
5.05342578125000e+03 1.27398339843750e+04 2.80371642112732e+00 899 
7.59989794921875e+03 1.22427939453125e+04 1.22307968139648e+00 900 
6.66329785156250e+03 1.09265058593750e+04 1.42776644229889e+00 902 
3.12607836914062e+03 1.00851816406250e+04 1.26684796810150e+00 908 
6.70081933593750e+03 1.20553037109375e+04 1.25471484661102e+00 913 
5.90819042968750e+03 1.24750312500000e+04 1.67130970954895e+00 916 
6.68020312500000e+03 1.19685771484375e+04 5.27403974533081e+00 918 
7.29563574218750e+03 9.68801269531250e+03 1.78761732578278e+00 926 
3.05723437500000e+03 1.00397275390625e+04 1.45210170745850e+00 931 
5.96811083984375e+03 1.02035625000000e+04 1.15478658676147e+00 932 
8.68447949218750e+03 1.24456376953125e+04 1.16201663017273e+00 933 
7.30465332031250e+03 9.49395507812500e+03 1.72874009609222e+00 941 
3.67459667968750e+03 1.21459140625000e+04 2.73886680603027e+00 942 
3.35546923828125e+03 1.22747988281250e+04 2.24339032173157e+00 943 
7.62221679687500e+03 1.06612539062500e+04 2.10677146911621e+00 945 
8.17587500000000e+03 1.06731308593750e+04 2.02956056594849e+00 954 
6.77402783203125e+03 1.02379990234375e+04 2.70734906196594e+00 959 
8.26645214843750e+03 1.16019716796875e+04 3.01351666450500e+00 962 
4.51052490234375e+03 1.29231777343750e+04 1.33517634868622e+00 966 
1.08941882324219e+03 1.25144609375000e+04 1.59053707122803e+00 967 
2.02911999511719e+03 1.25699990234375e+04 1.58370840549469e+00 968 
8.54860534667969e+02 1.23779189453125e+04 2.14167118072510e+01 969 
6.00222216796875e+03 6.63026611328125e+03 1.23452150821686e+00 970 
8.84128613281250e+03 1.16100644531250e+04 1.10401952266693e+00 971 
1.78298840332031e+03 1.05734345703125e+04 2.12140512466431e+00 972 
8.16744042968750e+03 9.88226660156250e+03 1.05319130420685e+00 973 
1.06395739746094e+03 4.15857128906250e+03 4.11079931259155e+00 974 
4.89696728515625e+03 6.06589501953125e+03 1.47201001644135e+00 975 
1.27361364746094e+03 1.15683369140625e+04 6.47118663787842e+00 976 
4.61039599609375e+03 6.96155273437500e+03 1.63067150115967e+00 977 
8.26719726562500e+03 1.15580898437500e+04 1.33970963954926e+00 978 
4.82319482421875e+03 1.27039453125000e+04 8.58256638050079e-01 979 
8.83368945312500e+03 1.00557011718750e+04 2.41275382041931e+00 980 
3.04221679687500e+02 1.01756865234375e+04 2.47001242637634e+00 981 
8.64366601562500e+03 9.96690136718750e+03 3.14152932167053e+00 982 
1.60526367187500e+03 4.19924072265625e+03 2.09862518310547e+00 983 
1.56560375976562e+03 1.17700390625000e+04 5.47467088699341e+00 984 
4.95850036621094e+02 1.01545908203125e+04 2.56755256652832e+00 985 
7.48209179687500e+03 1.13877558593750e+04 1.42428386211395e+00 986 
8.11240771484375e+03 6.99742578125000e+03 8.39627265930176e+00 987 
4.41614697265625e+03 1.22925859375000e+04 1.35801005363464e+00 989 
1.53205041503906e+03 1.24293300781250e+04 1.72439932823181e+00 990 
1.44465270996094e+03 9.13967089843750e+03 1.63357448577881e+00 991 
2.10648095703125e+03 1.23717744140625e+04 8.88491988182068e-01 992 
5.12731738281250e+03 1.09256777343750e+04 1.64718151092529e+00 993 
2.75503662109375e+03 1.09821376953125e+04 9.46195006370544e-01 994 
5.42941113281250e+03 7.50664746093750e+03 1.20538806915283e+00 995 
2.34943823242188e+03 1.20537441406250e+04 1.55764079093933e+00 996 
1.12956268310547e+02 9.07869531250000e+03 2.30685853958130e+00 997 
5.19731884765625e+03 8.25291699218750e+03 1.88481044769287e+00 998 
3.49418373107910e+01 9.93214062500000e+03 2.74083518981934e+00 999 
3.29762768554688e+03 5.51074462890625e+03 3.21488785743713e+00 1000 
1.55377258300781e+03 1.24096054687500e+04 1.89729571342468e+00 1001 
1.19550329589844e+03 5.48855908203125e+03 2.20421671867371e+00 1002 
3.96687597656250e+03 1.23953857421875e+04 3.49300813674927e+00 1003 
8.17064404296875e+03 2.06778979492188e+03 3.44802594184875e+00 1004 
4.42663574218750e+03 1.24883056640625e+04 2.01200222969055e+00 1005 
4.97385595703125e+03 9.96249218750000e+03 1.34519028663635e+00 1006 
3.49881103515625e+03 9.85266015625000e+03 2.06096076965332e+00 1007 
5.42326757812500e+03 9.16163574218750e+03 1.74270880222321e+00 1008 
1.01639617919922e+03 6.22354931640625e+03 2.19547247886658e+00 1009 
3.75569189453125e+03 5.66036767578125e+03 2.16570878028870e+00 1010 
5.78014111328125e+03 1.15531132812500e+04 3.14038038253784e+00 1011 
2.16335937500000e+03 1.17097441406250e+04 1.52649235725403e+00 1014 
2.80687084960938e+03 1.05666123046875e+04 1.01518297195435e+00 1018 
2.86162792968750e+03 9.66615527343750e+03 1.24498617649078e+00 1020 
2.76917309570312e+03 8.88544921875000e+03 1.43030941486359e+00 1021 
4.72230175781250e+03 9.68976464843750e+03 3.11562299728394e+00 1022 
1.80782641601562e+03 9.52406738281250e+03 2.60605335235596e+00 1023 
5.98741503906250e+03 8.36096777343750e+03 1.39001846313477e+00 1024 
7.79041564941406e+02 5.81678027343750e+03 2.20784258842468e+00 1025 
1.48657580566406e+03 5.62891357421875e+03 2.16737508773804e+00 1026 
7.67634277343750e+02 6.38823193359375e+03 2.19884347915649e+00 1027 
5.44803173828125e+03 9.10733300781250e+03 2.63818240165710e+00 1028 
3.21306518554688e+03 7.58674365234375e+03 1.82215988636017e+00 1029 
5.57824023437500e+03 5.32066357421875e+03 2.76591563224792e+00 1030 
5.14399316406250e+03 1.08599208984375e+04 3.20592498779297e+00 1031 
3.47379663085938e+03 7.56449609375000e+03 2.36001420021057e+00 1032 
3.34206372070312e+03 7.50726757812500e+03 1.52230679988861e+00 1033 
5.55763183593750e+03 6.24068798828125e+03 2.21151828765869e+00 1034 
3.20699169921875e+03 7.67757763671875e+03 2.51718330383301e+00 1035 
1.53903027343750e+03 7.95619042968750e+03 4.35673427581787e+00 1036 
5.43413452148438e+02 8.08319482421875e+03 1.23922181129456e+00 1037 
1.81709045410156e+03 7.80610058593750e+03 1.33234202861786e+00 1038 
4.02778344726562e+03 1.27881445312500e+04 1.56866300106049e+00 1039 
5.72996191406250e+03 1.15804277343750e+04 1.64854049682617e+00 1040 
3.14716748046875e+03 8.89149218750000e+03 1.61933994293213e+00 1042 
2.36205004882812e+03 8.27006542968750e+03 1.53911280632019e+00 1043 
3.39483459472656e+02 6.93792871093750e+03 1.29856836795807e+00 1044 
2.10835522460938e+03 1.18971093750000e+04 1.25666892528534e+00 1045 
3.28249609375000e+03 9.28796093750000e+03 1.14619576931000e+00 1046 
3.59204980468750e+03 6.02841894531250e+03 1.02543592453003e+00 1048 
3.58749340820312e+03 6.02909130859375e+03 1.04156005382538e+00 1049 
1.50607617187500e+03 1.26016953125000e+04 1.75580775737762e+00 1052 
2.63327416992188e+03 9.67362597656250e+03 1.57839727401733e+00 1053 
2.79792626953125e+03 1.09726074218750e+04 9.41622018814087e-01 1054 
2.77950244140625e+03 1.09611279296875e+04 9.46103453636169e-01 1055 
4.30409814453125e+03 1.07210126953125e+04 1.43293452262878e+00 1056 
4.07325170898438e+03 7.76437011718750e+03 1.17272746562958e+00 1058 
4.45620117187500e+03 5.86301708984375e+03 1.12745273113251e+00 1060 
2.63203002929688e+03 5.67908007812500e+03 1.31298279762268e+00 1061 
5.53130126953125e+03 5.19432031250000e+03 1.00490200519562e+00 1062 
3.89381439208984e+02 1.18575195312500e+04 1.60665285587311e+00 1064 
2.34643823242188e+03 9.35867871093750e+03 1.51094329357147e+00 1065 
1.88700854492188e+03 5.29144531250000e+03 3.84101104736328e+00 1066 
3.61962915039062e+03 6.83894628906250e+03 3.76800751686096e+00 1067 
4.18293652343750e+03 6.64672949218750e+03 1.62712306976318e+01 1068 
5.70961816406250e+03 7.14314550781250e+03 1.83929097652435e+00 1069 
7.42906265258789e+01 7.53493310546875e+03 1.59600520133972e+00 1070 
1.82918994140625e+03 6.50913671875000e+03 1.73027002811432e+00 1071 
1.72097851562500e+03 6.49519531250000e+03 1.54608845710754e+00 1072 
3.18571215820312e+03 5.86007324218750e+03 1.73422908782959e+00 1073 
1.67351028442383e+02 5.69452734375000e+03 1.62811696529388e+00 1074 
3.56716918945312e+03 1.21385625000000e+04 1.22120702266693e+00 1079 
6.67426391601562e+02 1.20045488281250e+04 1.33574378490448e+00 1080 
1.06638336181641e+02 1.13216728515625e+04 1.65991842746735e+00 1081 
3.94085644531250e+03 8.97484863281250e+03 1.21848893165588e+00 1082 
5.69604589843750e+03 1.15599052734375e+04 1.88217663764954e+00 1091 
4.15283496093750e+03 8.99015332031250e+03 1.73019397258759e+00 1093 
2.54517578125000e+02 9.37808398437500e+03 1.65883600711823e+00 1094 
5.82655273437500e+03 7.82808544921875e+03 1.45364332199097e+00 1096 
5.72186474609375e+03 5.67924365234375e+03 1.68877983093262e+00 1097 
5.68925683593750e+03 5.66602539062500e+03 1.69290471076965e+00 1098 
1.89140148925781e+03 5.14164746093750e+03 1.58870363235474e+00 1099 
7.95700317382812e+02 1.14665576171875e+04 1.26797628402710e+00 1102 
2.66529937744141e+02 1.14632880859375e+04 1.17278373241425e+00 1103 
6.12193994140625e+03 3.49430273437500e+03 1.70615732669830e+00 1104 
3.98530792236328e+02 1.07554873046875e+04 1.30799853801727e+00 1106 
2.91278295898438e+03 9.98876953125000e+03 1.37651026248932e+00 1107 
3.24956494140625e+03 9.72655273437500e+03 1.02878260612488e+00 1108 
3.99540087890625e+03 7.79779931640625e+03 1.32421922683716e+00 1111 
4.64871435546875e+03 9.91345703125000e+03 9.56675231456757e-01 1112 
2.42114379882812e+03 7.71541455078125e+03 1.03050553798676e+00 1113 
7.45180419921875e+02 7.55512988281250e+03 1.22434437274933e+00 1115 
7.38559265136719e+02 6.60508740234375e+03 1.33645093441010e+00 1119 
3.87790107727051e+01 6.42408447265625e+03 1.25826013088226e+00 1120 
1.05993347167969e+03 6.10180810546875e+03 1.25395143032074e+00 1121 
2.10341284179688e+03 5.73844384765625e+03 9.61850166320801e-01 1122 
2.72292822265625e+03 1.26421005859375e+04 1.64627766609192e+00 1124 
4.46886291503906e+01 9.86324414062500e+03 1.67920315265656e+00 1125 
3.86784692382812e+03 8.61134277343750e+03 1.73838794231415e+00 1126 
5.80234179687500e+03 7.83992382812500e+03 1.47235679626465e+00 1127 
3.57098388671875e+03 7.47328564453125e+03 1.47804665565491e+00 1128 
1.63434341430664e+02 7.22721142578125e+03 1.65988314151764e+00 1129 
3.18509448242188e+03 5.85418603515625e+03 1.88291501998901e+00 1131 
5.88203759765625e+03 9.45220410156250e+03 1.78666281700134e+00 1132 
8.94380249023438e+02 9.54991406250000e+03 1.56423246860504e+00 1133 
1.95102270507812e+03 8.16594482421875e+03 1.86071157455444e+00 1134 
2.98419165039062e+03 7.72961376953125e+03 2.20495128631592e+00 1135 
4.37830078125000e+03 5.91415332031250e+03 1.99899268150330e+00 1136 
5.42430615234375e+03 4.73282666015625e+03 2.23527383804321e+00 1137 
1.14987475585938e+03 8.13700585937500e+03 3.51877164840698e+00 1138 
5.77118164062500e+03 1.15583671875000e+04 2.28933310508728e+00 1139 
5.85817187500000e+03 1.05925859375000e+04 2.45168066024780e+00 1140 
5.67730810546875e+03 9.44815527343750e+03 1.61921393871307e+00 1141 
2.29737524414062e+03 9.26945800781250e+03 1.54623067378998e+00 1142 
5.83158300781250e+03 7.79752685546875e+03 2.00506496429443e+00 1143 
5.73914892578125e+03 6.47542871093750e+03 1.82107043266296e+00 1144 
5.40380517578125e+03 6.16622119140625e+03 2.39487767219543e+00 1145 
5.41324853515625e+03 6.13293798828125e+03 2.40770077705383e+00 1146 
5.42869873046875e+01 6.41846142578125e+03 2.67018437385559e+00 1147 
5.70444287109375e+03 5.32757470703125e+03 2.46249532699585e+00 1148 
5.44004052734375e+03 4.74206933593750e+03 2.22279977798462e+00 1149 
5.41744042968750e+03 4.72852880859375e+03 2.10339713096619e+00 1150 
4.53398779296875e+03 8.06505810546875e+03 3.74830746650696e+00 1151 
1.29043807983398e+02 6.93646044921875e+03 3.36558794975281e+00 1152 
1.41710961914062e+03 7.45733154296875e+03 1.75690972805023e+00 1153 
5.41947558593750e+03 6.11058789062500e+03 2.45599436759949e+00 1154 
5.17142626953125e+03 5.88976855468750e+03 1.94355142116547e+00 1155 
4.37086474609375e+03 5.92103466796875e+03 2.26332235336304e+00 1156 
3.85478222656250e+03 5.05854101562500e+03 2.76623964309692e+00 1157 
6.05502880859375e+03 9.32648437500000e+03 3.14720273017883e+00 1158 
4.53261230468750e+03 8.70491699218750e+03 3.11310338973999e+00 1159 
3.97429687500000e+03 5.40891894531250e+03 2.87301301956177e+00 1160 
3.96272998046875e+03 5.37737939453125e+03 2.97200155258179e+00 1161 
3.93966821289062e+03 5.36347851562500e+03 2.90452933311462e+00 1162 
3.16985229492188e+03 1.20784199218750e+04 1.26848745346069e+00 1167 
3.12370776367188e+03 1.05420527343750e+04 1.04579031467438e+00 1169 
8.37013732910156e+02 9.71816699218750e+03 1.31482326984406e+00 1172 
4.47702929687500e+03 8.94079687500000e+03 1.10082173347473e+00 1173 
2.54308618164062e+03 7.24972900390625e+03 9.47100400924683e-01 1179 
4.89983154296875e+03 6.07388671875000e+03 1.08496868610382e+00 1182 
1.98929821777344e+03 5.74425048828125e+03 1.19535934925079e+00 1183 
3.24623486328125e+03 5.05467285156250e+03 1.16430687904358e+00 1185 
3.15436596679688e+03 1.20856875000000e+04 1.33179235458374e+00 1187 
1.06664599609375e+03 1.12237617187500e+04 1.79182863235474e+00 1188 
3.57670068359375e+03 9.77473730468750e+03 1.76559591293335e+00 1189 
2.05700805664062e+03 7.43580371093750e+03 1.53459918498993e+00 1190 
1.90583837890625e+03 5.14239111328125e+03 1.46070170402527e+00 1191 
2.42146752929688e+03 1.21996621093750e+04 1.23244273662567e+00 1196 
3.64141894531250e+03 1.00523632812500e+04 1.25415146350861e+00 1197 
4.16649804687500e+03 9.74105664062500e+03 1.22875583171844e+00 1198 
3.84435815429688e+03 9.34932910156250e+03 1.35503268241882e+00 1200 
3.16101928710938e+03 8.86534863281250e+03 1.19898068904877e+00 1201 
4.03889868164062e+03 8.58714160156250e+03 9.71770167350769e-01 1202 
4.20981689453125e+02 8.57025292968750e+03 1.55865764617920e+00 1203 
3.10923919677734e+02 8.54609765625000e+03 1.41246056556702e+00 1204 
2.42295263671875e+03 7.72100634765625e+03 1.15853345394135e+00 1206 
1.65975744628906e+03 6.50190429687500e+03 1.24512135982513e+00 1208 
4.12172167968750e+03 5.99957031250000e+03 1.48789370059967e+00 1209 
4.83263574218750e+03 5.84656494140625e+03 1.35837471485138e+00 1210 
4.89680419921875e+03 5.04582080078125e+03 1.20205700397491e+00 1212 
3.29702221679688e+03 5.02710058593750e+03 1.09102880954742e+00 1213 
1.66998815917969e+03 1.07005048828125e+04 1.55070865154266e+00 1215 
6.43997314453125e+02 1.01104453125000e+04 1.49783933162689e+00 1216 
6.03400537109375e+03 8.90033886718750e+03 1.42882657051086e+00 1217 
3.34697998046875e+03 7.50936865234375e+03 1.65791797637939e+00 1218 
2.02705371093750e+03 7.42738183593750e+03 1.58810782432556e+00 1219 
7.83002807617188e+02 7.56778320312500e+03 1.61262845993042e+00 1220 
5.86391748046875e+03 6.72445263671875e+03 1.61410164833069e+00 1222 
3.70969360351562e+03 9.09096289062500e+03 1.54998397827148e+00 1223 
3.55348803710938e+03 7.54093750000000e+03 1.96761858463287e+00 1224 
9.95363616943359e+01 7.00039013671875e+03 3.02041435241699e+00 1225 
4.90005126953125e+03 6.06720263671875e+03 2.04157614707947e+00 1226 
1.95965539550781e+03 5.16425195312500e+03 1.92946195602417e+00 1227 
1.98026977539062e+03 5.13066650390625e+03 1.81851780414581e+00 1228 
2.98926171875000e+03 1.23752255859375e+04 1.99600803852081e+00 1229 
6.22550732421875e+03 1.14021464843750e+04 2.32520961761475e+00 1230 
1.45145446777344e+03 9.37077246093750e+03 1.97394299507141e+00 1231 
5.92065917968750e+03 8.82276171875000e+03 2.14014911651611e+00 1232 
2.97980621337891e+02 9.26955859375000e+03 1.97973918914795e+00 1233 
1.37471618652344e+03 7.11653076171875e+03 2.33069992065430e+00 1234 
4.30267547607422e+02 1.22602392578125e+04 3.66749429702759e+00 1235 
4.71189453125000e+03 5.67051220703125e+03 3.01762843132019e+00 1236 
2.99803222656250e+03 1.23508486328125e+04 2.27257466316223e+00 1237 
5.70521777343750e+03 1.15626357421875e+04 1.89670467376709e+00 1238 
6.03926806640625e+03 9.27444335937500e+03 2.32252383232117e+00 1239 
3.95168554687500e+03 8.85808398437500e+03 2.19051551818848e+00 1240 
5.85872119140625e+03 7.04523730468750e+03 2.82686948776245e+00 1241 
5.82199707031250e+03 6.72481054687500e+03 1.94584977626801e+00 1242 
5.53521728515625e+03 7.25220751953125e+03 2.89697313308716e+00 1243 
4.23238916015625e+03 5.54055419921875e+03 3.00029110908508e+00 1244 
4.20898730468750e+03 5.52662597656250e+03 2.90126562118530e+00 1245 
1.77601281738281e+03 9.62127246093750e+03 2.08381223678589e+00 1246 
5.22669580078125e+03 9.16164453125000e+03 1.96412909030914e+00 1247 
9.15587463378906e+02 9.55458691406250e+03 1.54806029796600e+00 1248 
1.76428833007812e+03 8.83155566406250e+03 1.91944301128387e+00 1249 
4.14480126953125e+03 8.50736621093750e+03 2.24542117118835e+00 1250 
3.56622192382812e+03 7.56818164062500e+03 1.42334210872650e+00 1251 
5.51955908203125e+03 7.29581396484375e+03 2.17367720603943e+00 1252 
1.34172741699219e+03 7.22664013671875e+03 2.22854733467102e+00 1253 
5.99479394531250e+03 9.21149511718750e+03 3.17544269561768e+00 1254 
1.74554394531250e+03 1.06685009765625e+04 2.20827388763428e+00 1255 
9.19460632324219e+02 9.17678515625000e+03 2.71322846412659e+00 1256 
2.46141943359375e+03 8.56827539062500e+03 2.49931049346924e+00 1257 
4.47593310546875e+03 7.29057861328125e+03 1.59089398384094e+00 1258 
1.37775036621094e+03 7.10537451171875e+03 2.29193544387817e+00 1259 
5.56503982543945e+01 7.40919628906250e+03 3.28781604766846e+00 1260 
5.67718115234375e+03 5.32267724609375e+03 2.96667814254761e+00 1261 
1.19684240722656e+03 1.03924013671875e+04 5.02860975265503e+00 1262 
5.19137890625000e+03 5.49213037109375e+03 1.47843599319458e+00 1263 
2.32796875000000e+03 1.21185732421875e+04 4.97785854339600e+00 1264 
6.13402246093750e+03 9.58106640625000e+03 3.33405280113220e+00 1265 
5.21854394531250e+03 8.23803906250000e+03 1.62620580196381e+00 1266 
5.22019726562500e+03 8.23033886718750e+03 1.57220339775085e+00 1267 
2.92733947753906e+02 8.59621582031250e+03 1.69459939002991e+00 1268 
2.42050732421875e+03 7.82355468750000e+03 1.16859459877014e+00 1272 
7.40855102539062e+02 6.60988427734375e+03 1.13527750968933e+00 1278 
3.91618481445312e+03 6.14307275390625e+03 1.11854243278503e+00 1279 
2.20068554687500e+03 5.73694775390625e+03 1.03653573989868e+00 1281 
2.73109521484375e+03 5.08561718750000e+03 9.33050274848938e-01 1283 
3.14977929687500e+03 1.20763193359375e+04 1.61322999000549e+00 1285 
2.59111132812500e+03 1.04732568359375e+04 1.31699228286743e+00 1287 
5.03377050781250e+03 8.48756835937500e+03 1.79019153118134e+00 1288 
5.80271533203125e+03 7.82049511718750e+03 1.45287585258484e+00 1289 
3.97075610351562e+03 7.67191845703125e+03 1.51907837390900e+00 1290 
2.98200903320312e+03 7.67048583984375e+03 1.56705307960510e+00 1291 
2.98416308593750e+03 7.66243164062500e+03 1.62751972675323e+00 1292 
4.55852050781250e+03 5.36894335937500e+03 1.65443837642670e+00 1294 
1.94421899414062e+03 5.16607177734375e+03 1.54282188415527e+00 1295 
2.72141174316406e+02 1.14615761718750e+04 1.07802855968475e+00 1300 
2.42049023437500e+03 7.81843164062500e+03 9.21259880065918e-01 1303 
3.10185644531250e+03 6.19692236328125e+03 1.17289698123932e+00 1305 
4.11705566406250e+03 5.98477246093750e+03 1.28284740447998e+00 1306 
1.49869287109375e+03 1.24228408203125e+04 1.54485404491425e+00 1309 
2.76768286132812e+03 9.94909960937500e+03 1.55877685546875e+00 1310 
8.92733993530273e+01 9.92783691406250e+03 1.59694433212280e+00 1311 
9.06118408203125e+02 9.54735253906250e+03 1.40017426013947e+00 1312 
1.47128405761719e+03 9.30112500000000e+03 1.87662220001221e+00 1313 
5.58387744140625e+03 5.34781787109375e+03 1.67813825607300e+00 1314 
5.49935400390625e+03 5.32440966796875e+03 1.78944039344788e+00 1315 
5.21705810546875e+03 9.25656152343750e+03 9.62468028068542e-01 1318 
3.89477368164062e+03 9.14334277343750e+03 1.19883894920349e+00 1319 
5.31538183593750e+03 8.94504394531250e+03 1.14190840721130e+00 1320 
3.78115917968750e+03 8.73309667968750e+03 1.12321114540100e+00 1321 
4.84215185546875e+03 7.84045996093750e+03 1.26809144020081e+00 1322 
2.40227075195312e+03 7.74362011718750e+03 1.09096074104309e+00 1325 
1.71112524414062e+03 6.49901611328125e+03 1.14383709430695e+00 1326 
1.66124816894531e+03 6.49649121093750e+03 1.31080734729767e+00 1327 
4.89343750000000e+03 6.13347314453125e+03 1.22162032127380e+00 1328 
1.19153186035156e+03 6.05821240234375e+03 1.70358371734619e+00 1330 
4.80536376953125e+03 5.51656054687500e+03 1.45168960094452e+00 1331 
2.31885107421875e+03 1.25816035156250e+04 1.60377502441406e+00 1334 
7.88405334472656e+02 1.20685087890625e+04 1.81874787807465e+00 1335 
4.50296728515625e+03 8.84577929687500e+03 1.72689855098724e+00 1336 
2.11626904296875e+03 7.48938574218750e+03 1.71202158927917e+00 1337 
6.37806945800781e+02 6.85060205078125e+03 1.59842801094055e+00 1338 
1.72064318847656e+03 6.50220214843750e+03 1.59443855285645e+00 1339 
1.74508593750000e+03 1.23496386718750e+04 1.14400517940521e+00 1342 
2.39479516601562e+03 1.21617617187500e+04 1.13228034973145e+00 1343 
4.11340148925781e+02 1.07993408203125e+04 1.15742301940918e+00 1345 
5.05208007812500e+03 1.00678632812500e+04 9.60979521274567e-01 1346 
5.13412060546875e+03 8.54494531250000e+03 1.48072385787964e+00 1347 
4.42466943359375e+03 8.30696875000000e+03 1.20658326148987e+00 1348 
2.50501953125000e+03 7.71040283203125e+03 1.14421606063843e+00 1349 
2.55053710937500e+03 5.70446875000000e+03 1.92917215824127e+00 1354 
1.72713000488281e+03 1.06004580078125e+04 1.68834912776947e+00 1361 
2.99308227539062e+03 9.09764355468750e+03 1.54723548889160e+00 1362 
4.35597851562500e+03 1.16578359375000e+04 6.34674930572510e+00 1363 
4.51935986328125e+03 8.08356542968750e+03 6.20674896240234e+00 1364 
1.75715637207031e+02 9.68560839843750e+03 5.12853336334229e+00 1365 
3.10477478027344e+02 9.64580761718750e+03 6.04337692260742e+00 1366 
1.24486682128906e+03 8.73262207031250e+03 6.94792032241821e+00 1367 
5.00200585937500e+03 7.86577929687500e+03 4.16885137557983e+00 1368 
2.94028417968750e+03 6.22245214843750e+03 4.78558158874512e+00 1369 
5.67212341308594e+02 5.76692236328125e+03 6.38013839721680e+00 1370 
3.32069677734375e+03 6.68307128906250e+03 1.14261779785156e+01 1371 
1.02137561035156e+03 8.57756054687500e+03 1.07588739395142e+01 1372 
1.00197686767578e+03 8.64980175781250e+03 1.20770206451416e+01 1373 
4.44850537109375e+03 6.90425439453125e+03 1.51671457290649e+01 1374 
3.38556103515625e+03 1.18952880859375e+04 1.14681887626648e+00 1375 
5.04034130859375e+03 1.12285371093750e+04 3.56108379364014e+00 1376 
2.76541918945312e+03 1.09506445312500e+04 9.23737943172455e-01 1377 
4.40347265625000e+03 6.82273339843750e+03 3.90898971557617e+01 1378 
1.85977160644531e+03 6.50733105468750e+03 1.52591633796692e+00 1379 
5.11766503906250e+03 8.14641162109375e+03 2.93198561668396e+00 1380 
5.52124462890625e+03 7.24280224609375e+03 3.18121957778931e+00 1381 
3.48858813476562e+03 1.13089033203125e+04 1.05308270454407e+00 1382 
4.77365771484375e+03 5.56579394531250e+03 1.90586519241333e+00 1383 
5.57056542968750e+03 1.05132080078125e+04 1.18757438659668e+00 1385 
2.75283764648438e+03 5.61945312500000e+03 1.62554132938385e+00 1386 
5.97316308593750e+03 1.27456806640625e+04 1.26287949085236e+00 1388 
2.90531274414062e+03 1.23049814453125e+04 1.08407604694366e+00 1389 
6.62839904785156e+02 6.68526220703125e+03 1.14809083938599e+00 1391 
3.82606250000000e+03 6.09441113281250e+03 1.52110195159912e+00 1392 
2.07049316406250e+03 8.80467089843750e+03 1.19219243526459e+00 1393 
6.65971984863281e+02 1.23121748046875e+04 2.51895356178284e+00 1394 
3.12336944580078e+02 1.14849619140625e+04 9.94914710521698e-01 1395 
5.09064404296875e+03 9.87368945312500e+03 1.27675306797028e+00 1396 
1.04477880859375e+03 9.79392675781250e+03 1.92554903030396e+00 1397 
2.42603591918945e+02 1.27116923828125e+04 2.81809520721436e+00 1398 
6.43683166503906e+02 1.23066406250000e+04 2.45581078529358e+00 1399 
1.96025732421875e+03 9.22950585937500e+03 2.02875518798828e+00 1400 
5.64314697265625e+02 5.20536425781250e+03 2.59296464920044e+00 1401 
2.72115454101562e+03 6.15016064453125e+03 7.17623662948608e+00 1402 
6.59820117187500e+03 3.05494995117188e+03 1.93040740489960e+00 1403 
5.92133886718750e+03 1.02873437500000e+04 1.28809595108032e+00 1404 
5.73649853515625e+03 1.12181855468750e+04 1.06876897811890e+00 1405 
1.30250244140625e+03 1.24735087890625e+04 1.26971900463104e+00 1406 
2.41033349609375e+03 5.43755126953125e+03 9.25117969512939e-01 1407 
2.85033789062500e+03 5.08337060546875e+03 3.76454138755798e+00 1408 
2.68466528320312e+03 9.84373144531250e+03 1.06743645668030e+00 1409 
2.55997216796875e+03 7.25494726562500e+03 1.04936325550079e+00 1410 
1.61241381835938e+03 7.27008789062500e+03 1.22154378890991e+00 1411 
2.16574707031250e+03 7.71316552734375e+03 1.08560371398926e+00 1412 
1.67259875488281e+03 8.42873828125000e+03 1.25148999691010e+00 1413 
3.28595977783203e+02 8.68518847656250e+03 2.20217490196228e+00 1414 
1.56730236816406e+03 7.96078320312500e+03 1.76944577693939e+00 1415 
5.38154980468750e+03 4.51034576416016e+02 2.08913445472717e+00 1416 
4.59860058593750e+03 5.39757128906250e+03 2.58332133293152e+00 1417 
4.16446289062500e+03 8.43680761718750e+03 1.87162137031555e+00 1418 
4.37939648437500e+03 5.93277880859375e+03 1.96585547924042e+00 1419 
4.43616943359375e+03 1.16783935546875e+04 8.96750450134277e-01 1420 
4.35017089843750e+03 1.16445234375000e+04 9.47423040866852e-01 1421 
3.62315454101562e+03 9.44796386718750e+03 1.15483999252319e+00 1422 
1.23539782714844e+03 6.73851806640625e+03 1.47951698303223e+00 1423 
3.79515698242188e+03 8.75001562500000e+03 1.13763427734375e+00 1424 
5.83290039062500e+03 7.78822363281250e+03 1.32161605358124e+00 1425 
3.02315063476562e+03 5.65811328125000e+03 1.19612705707550e+00 1426 
1.15994433593750e+03 6.06690429687500e+03 1.26730751991272e+00 1427 
2.61052563476562e+03 3.85642993164062e+03 2.17386531829834e+00 1428 
1.07141357421875e+03 8.58589160156250e+03 2.13395071029663e+00 1429 
3.46323913574219e+02 8.57268750000000e+03 2.20419311523438e+00 1430 
1.16066284179688e+03 4.94208740234375e+03 2.13329720497131e+00 1431 
4.78281646728516e+02 4.57566943359375e+03 1.78582131862640e+00 1432 
3.86161987304688e+03 5.04736718750000e+03 2.39547991752625e+00 1433 
5.43161376953125e+03 5.48685156250000e+03 3.52579092979431e+00 1434 
1.61604138183594e+03 8.37818847656250e+03 1.51304018497467e+00 1435 
1.35567846679688e+03 8.19498730468750e+03 1.87756001949310e+00 1436 
1.00099011230469e+03 1.09286015625000e+04 1.10267019271851e+00 1437 
3.76455639648438e+03 8.79573925781250e+03 1.08713304996490e+00 1438 
4.41189843750000e+03 8.53880175781250e+03 1.38525104522705e+00 1439 
9.56291198730469e+02 8.71683886718750e+03 1.32901346683502e+00 1440 
5.47031127929688e+02 8.08277148437500e+03 1.37245833873749e+00 1441 
9.20375427246094e+02 7.65657812500000e+03 1.54065275192261e+00 1442 
3.85269384765625e+03 8.84565722656250e+03 1.73791205883026e+00 1443 
4.51900732421875e+03 1.16947861328125e+04 9.36313450336456e-01 1444 
3.85866503906250e+03 8.62281835937500e+03 9.44392859935760e-01 1445 
3.28741912841797e+02 6.24991552734375e+03 1.66627120971680e+00 1446 
5.46458105468750e+03 5.47803417968750e+03 1.33881306648254e+00 1447 
3.00968188476562e+03 8.92457421875000e+03 1.12747085094452e+00 1448 
4.72690820312500e+03 8.60839843750000e+03 1.08745825290680e+00 1449 
1.73745397949219e+03 7.35405175781250e+03 9.87293422222137e-01 1450 
1.40779321289062e+03 1.00391972656250e+04 5.34116840362549e+00 1451 
2.94971069335938e+03 3.09013452148438e+03 1.34876418113708e+00 1452 
7.07350097656250e+03 7.12049804687500e+03 1.99547541141510e+00 1453 
7.99221826171875e+03 6.20899414062500e+03 2.75168013572693e+00 1454 
7.63641308593750e+03 4.73272167968750e+03 2.10202956199646e+00 1455 
6.26820556640625e+03 6.82770117187500e+03 1.65044403076172e+00 1456 
8.01561669921875e+03 6.10571386718750e+03 1.69316148757935e+00 1457 
6.15315478515625e+03 4.61904199218750e+03 2.52759599685669e+00 1458 
7.10581542968750e+03 1.04436601562500e+04 1.19822621345520e+00 1459 
6.47148388671875e+03 7.90707421875000e+03 1.37519669532776e+00 1460 
4.53453271484375e+03 8.07456884765625e+03 1.32764136791229e+00 1461 
7.13090820312500e+03 7.77964306640625e+03 9.47961151599884e-01 1462 
6.95122119140625e+03 7.26090283203125e+03 1.31785190105438e+00 1463 
6.54720556640625e+03 7.42629492187500e+03 1.23899316787720e+00 1464 
8.66204980468750e+03 1.10634667968750e+04 1.47532367706299e+00 1465 
6.70689746093750e+03 7.42688720703125e+03 1.66909050941467e+00 1466 
6.49774853515625e+03 4.93500537109375e+03 1.34822154045105e+00 1467 
8.51169726562500e+03 9.97152441406250e+03 1.20967435836792e+00 1468 
6.59940234375000e+03 7.47543115234375e+03 1.41593158245087e+00 1469 
7.03169335937500e+03 6.25731787109375e+03 1.05272507667542e+00 1470 
7.39398193359375e+03 1.28306347656250e+04 1.36068391799927e+00 1472 
7.05109814453125e+03 7.80084619140625e+03 1.01320910453796e+00 1473 
2.49232421875000e+03 8.43472753906250e+03 1.67274928092957e+00 1474 
6.97660449218750e+03 7.26012792968750e+03 1.95683300495148e+00 1475 
2.87730346679688e+03 6.15861816406250e+03 3.41700720787048e+00 1476 
7.98385791015625e+03 1.20641425781250e+04 1.48892855644226e+00 1477 
7.09858154296875e+03 8.89035253906250e+03 9.64688241481781e-01 1478 
3.20280810546875e+03 8.41889062500000e+03 9.04351353645325e-01 1479 
4.58895898437500e+03 6.62575488281250e+03 1.24384427070618e+00 1480 
3.72972387695312e+03 6.09498779296875e+03 1.24844956398010e+00 1481 
6.96421337890625e+03 4.62388281250000e+03 1.15943431854248e+00 1482 
7.96025097656250e+03 1.05493017578125e+04 1.14483034610748e+00 1483 
8.16606005859375e+03 7.72402490234375e+03 1.18901717662811e+00 1484 
6.82061767578125e+03 1.28243046875000e+04 3.45343399047852e+00 1485 
7.95516015625000e+03 5.82600634765625e+03 2.53189349174500e+00 1486 
6.21014892578125e+03 9.61037695312500e+03 3.18371939659119e+00 1487 
3.51553222656250e+03 6.68629248046875e+03 3.28338122367859e+00 1488 
6.93761376953125e+03 4.62097167968750e+03 1.61251652240753e+00 1489 
8.16604541015625e+03 7.71654345703125e+03 1.32211577892303e+00 1490 
2.52604711914062e+03 8.31612402343750e+03 1.43565058708191e+00 1491 
6.66919970703125e+03 7.55534472656250e+03 1.02089428901672e+00 1492 
6.02112841796875e+03 7.02154296875000e+03 1.25646007061005e+00 1493 
7.17790625000000e+03 7.23319384765625e+03 1.57159757614136e+00 1494 
6.26828125000000e+03 6.96949707031250e+03 1.39084827899933e+00 1495 
7.03184130859375e+03 6.12550048828125e+03 1.51465034484863e+00 1496 
6.32087890625000e+03 1.00493818359375e+04 1.68766176700592e+00 1497 
8.18867968750000e+03 9.78639355468750e+03 1.12507295608521e+00 1498 
8.62234765625000e+03 1.10629023437500e+04 1.46436488628387e+00 1500 
7.46814257812500e+03 8.79454003906250e+03 1.40464043617249e+00 1501 
8.00090478515625e+03 7.19823339843750e+03 1.62139701843262e+00 1502 
7.99426904296875e+03 7.19827197265625e+03 1.62046372890472e+00 1503 
5.99509619140625e+03 5.87581103515625e+03 1.66692757606506e+00 1504 
8.74058300781250e+03 1.20517822265625e+04 1.79550302028656e+00 1505 
7.99142382812500e+03 1.20614853515625e+04 2.09400963783264e+00 1506 
4.91361621093750e+03 8.06652490234375e+03 2.62274980545044e+00 1507 
6.51405859375000e+03 5.51401660156250e+03 1.89265632629395e+00 1508 
8.31355273437500e+03 9.29595898437500e+03 2.94052672386169e+00 1509 
5.12833886718750e+03 8.10863476562500e+03 2.91798138618469e+00 1510 
7.82201123046875e+03 4.86422363281250e+03 2.88959527015686e+00 1511 
6.53284423828125e+03 8.93694726562500e+03 2.17629575729370e+00 1512 
8.51373535156250e+03 1.05706494140625e+04 3.36297917366028e+00 1513 
8.16054589843750e+03 1.26405781250000e+04 1.90922105312347e+00 1514 
4.91591992187500e+03 8.10838183593750e+03 2.70464658737183e+00 1515 
7.69283691406250e+03 7.33784375000000e+03 2.37341189384460e+00 1516 
8.33680175781250e+03 6.21440771484375e+03 2.06129193305969e+00 1517 
5.40193505859375e+03 4.71923681640625e+03 2.06437754631042e+00 1518 
6.65195410156250e+03 4.55422265625000e+03 1.80149793624878e+00 1519 
8.17588183593750e+03 8.69883593750000e+03 1.72027647495270e+00 1520 
6.22091308593750e+03 8.92640039062500e+03 1.44082522392273e+00 1521 
7.39682177734375e+03 8.55984667968750e+03 1.71372449398041e+00 1522 
5.99744091796875e+03 5.86913720703125e+03 1.62278592586517e+00 1523 
6.13127929687500e+03 5.51037109375000e+03 1.59068346023560e+00 1524 
6.85255517578125e+03 1.09455078125000e+04 1.01930439472198e+00 1525 
6.93718652343750e+03 8.89516113281250e+03 1.11080384254456e+00 1526 
6.24896728515625e+03 8.92271679687500e+03 1.36959767341614e+00 1527 
6.17029589843750e+03 8.92424414062500e+03 8.85352671146393e-01 1528 
7.94115722656250e+03 4.73630126953125e+03 1.30542254447937e+00 1529 
2.26866943359375e+03 5.50252880859375e+03 1.18169319629669e+00 1530 
8.06737451171875e+03 1.24198925781250e+04 1.40328466892242e+00 1531 
6.57289794921875e+03 1.20305371093750e+04 1.63657832145691e+00 1532 
5.24946923828125e+03 9.07785937500000e+03 1.97789764404297e+00 1533 
2.96986328125000e+03 7.71821142578125e+03 1.58030891418457e+00 1534 
7.88767968750000e+03 1.18066533203125e+04 1.11313319206238e+00 1536 
7.33018115234375e+03 1.11772890625000e+04 1.05338311195374e+00 1537 
2.52985937500000e+03 1.10614316406250e+04 9.76895749568939e-01 1538 
6.59031884765625e+03 9.26239941406250e+03 1.50769948959351e+00 1539 
4.10133544921875e+03 7.62818115234375e+03 1.27824556827545e+00 1540 
6.18746875000000e+03 7.01730371093750e+03 1.44697892665863e+00 1541 
7.05033007812500e+03 5.05903710937500e+03 1.06875896453857e+00 1542 
6.59574560546875e+03 1.26124746093750e+04 1.32156479358673e+00 1543 
7.87140087890625e+03 9.40497656250000e+03 1.12074625492096e+00 1545 
6.65634277343750e+03 8.92777734375000e+03 1.11139464378357e+00 1546 
6.26667578125000e+03 6.97244042968750e+03 1.29054367542267e+00 1548 
6.95812109375000e+03 6.40969677734375e+03 1.31773900985718e+00 1549 
6.77544873046875e+03 6.01637451171875e+03 1.13400137424469e+00 1550 
7.60056591796875e+03 4.72722070312500e+03 1.17237305641174e+00 1551 
8.13112402343750e+03 8.84279003906250e+03 1.58397865295410e+00 1552 
5.80280078125000e+03 7.82443603515625e+03 1.54399573802948e+00 1553 
2.55605932617188e+03 7.26308154296875e+03 1.53367710113525e+00 1554 
5.91769628906250e+03 6.44511376953125e+03 1.58038520812988e+00 1555 
7.69737158203125e+03 5.78800439453125e+03 1.42592751979828e+00 1556 
6.83963720703125e+03 9.55654492187500e+03 1.31243896484375e+00 1557 
6.73458398437500e+03 9.41137597656250e+03 1.09327876567841e+00 1558 
3.93841870117188e+03 9.56227539062500e+03 1.17408609390259e+00 1559 
8.07443408203125e+03 8.94300683593750e+03 1.27430915832520e+00 1560 
4.08790161132812e+03 7.67982617187500e+03 1.33534717559814e+00 1561 
8.07869775390625e+03 6.09597216796875e+03 1.43893802165985e+00 1562 
6.63346533203125e+03 4.97228662109375e+03 1.41801285743713e+00 1563 
7.67993994140625e+03 1.04965654296875e+04 1.70422422885895e+00 1564 
6.73368212890625e+03 9.52331347656250e+03 1.43764781951904e+00 1565 
6.40015332031250e+03 8.93504003906250e+03 1.60842132568359e+00 1566 
8.16414746093750e+03 7.76115771484375e+03 1.74977171421051e+00 1567 
6.31141162109375e+03 1.00337529296875e+04 3.53626227378845e+00 1568 
6.44731494140625e+03 9.04638378906250e+03 2.66241812705994e+00 1569 
4.81382763671875e+03 8.37229296875000e+03 2.80476856231689e+00 1570 
7.70128076171875e+03 7.38159667968750e+03 1.85119307041168e+00 1571 
5.18326074218750e+03 7.55161523437500e+03 2.99806356430054e+00 1572 
7.28408154296875e+03 5.43156152343750e+03 5.11947202682495e+00 1573 
7.90799902343750e+03 4.73102294921875e+03 4.99668455123901e+00 1574 
7.59005615234375e+03 7.40925878906250e+03 6.54714298248291e+00 1575 
6.59273681640625e+03 6.48523730468750e+03 6.70990133285522e+00 1576 
8.03896044921875e+03 6.85685156250000e+03 4.96241807937622e+00 1577 
6.15896240234375e+03 4.62428076171875e+03 3.87033343315125e+00 1578 
8.02632128906250e+03 8.95921289062500e+03 1.69405770301819e+00 1579 
6.48510595703125e+03 7.67824560546875e+03 9.62291300296783e-01 1580 
8.66243359375000e+03 1.24710634765625e+04 1.25563192367554e+00 1581 
8.23820019531250e+03 1.11848759765625e+04 1.07953786849976e+00 1582 
6.25468847656250e+03 1.12921972656250e+04 9.46241497993469e-01 1583 
7.08474218750000e+03 8.50754687500000e+03 1.16361820697784e+00 1584 
6.26687060546875e+03 6.97738183593750e+03 1.17257380485535e+00 1585 
3.58159887695312e+03 7.05194287109375e+03 1.00454688072205e+00 1586 
6.02831152343750e+03 8.92620996093750e+03 1.41322278976440e+00 1587 
6.39468603515625e+03 7.80190039062500e+03 1.73385095596313e+00 1588 
7.18197705078125e+03 7.23102294921875e+03 1.79430329799652e+00 1589 
6.38632080078125e+03 7.14538232421875e+03 1.72233653068542e+00 1590 
6.91054248046875e+03 1.20342832031250e+04 1.32061183452606e+00 1591 
7.17137011718750e+03 1.14762236328125e+04 1.29947888851166e+00 1592 
4.87619140625000e+03 1.03581953125000e+04 1.33332574367523e+00 1593 
6.27714355468750e+03 9.87551562500000e+03 1.03721034526825e+00 1594 
3.64024414062500e+03 1.02355087890625e+04 1.12931108474731e+00 1595 
6.07909082031250e+03 8.90187011718750e+03 1.37178552150726e+00 1596 
3.11502929687500e+03 9.04303906250000e+03 1.20861852169037e+00 1597 
7.08461376953125e+03 8.52684277343750e+03 1.26650607585907e+00 1598 
4.12809179687500e+03 7.84941943359375e+03 1.34888172149658e+00 1599 
6.18185205078125e+03 6.01227734375000e+03 1.12317752838135e+00 1600 
1.99853698730469e+03 5.72976562500000e+03 1.29628133773804e+00 1601 
6.12481494140625e+03 1.14832578125000e+04 1.81436932086945e+00 1602 
5.40903417968750e+03 4.72324755859375e+03 2.19757580757141e+00 1603 
7.24877246093750e+03 4.60169433593750e+03 2.70684385299683e+00 1604 
3.97091064453125e+03 1.23514677734375e+04 2.55210995674133e+00 1605 
7.22222509765625e+03 8.90446972656250e+03 1.82078218460083e+00 1606 
4.82756982421875e+03 8.37649023437500e+03 2.59018492698669e+00 1607 
2.26513574218750e+03 6.25301220703125e+03 2.69612240791321e+00 1608 
7.46349414062500e+03 5.54621777343750e+03 2.37106919288635e+00 1609 
7.78526025390625e+03 4.44535058593750e+03 2.28634428977966e+00 1610 
6.50385546875000e+03 1.29405000000000e+04 1.65966320037842e+00 1611 
6.00808203125000e+03 1.21076923828125e+04 2.08545422554016e+00 1612 
6.78251513671875e+03 5.30584326171875e+03 2.36123442649841e+00 1613 
7.48090185546875e+03 4.49097509765625e+03 2.57755208015442e+00 1614 
8.07262109375000e+03 1.23381816406250e+04 3.22313594818115e+00 1615 
8.32259472656250e+03 9.29621679687500e+03 3.08334374427795e+00 1616 
6.15877294921875e+03 4.76407910156250e+03 4.50467872619629e+00 1617 
6.47755761718750e+03 6.39407617187500e+03 4.80432415008545e+00 1618 
7.71842382812500e+03 7.41007177734375e+03 6.52379846572876e+00 1619 
6.47406982421875e+03 6.06928027343750e+03 5.79402256011963e+00 1620 
7.25686474609375e+03 7.72355615234375e+03 1.17009077072144e+01 1621 
6.20561572265625e+03 8.92573144531250e+03 1.02098500728607e+00 1622 
6.67001757812500e+03 7.85850195312500e+03 1.24685227870941e+00 1624 
7.26999267578125e+03 6.17433203125000e+03 1.43197023868561e+00 1625 
7.02869628906250e+03 6.12624511718750e+03 1.25152695178986e+00 1626 
6.88645410156250e+03 5.91658691406250e+03 1.20179414749146e+00 1627 
6.81592675781250e+03 5.20779443359375e+03 1.35364878177643e+00 1628 
8.02637060546875e+03 8.95533789062500e+03 1.73402917385101e+00 1629 
7.79483593750000e+03 8.20395214843750e+03 1.62386786937714e+00 1630 
6.96047167968750e+03 4.61192041015625e+03 1.53592729568481e+00 1631 
7.55297949218750e+03 1.21908994140625e+04 1.38394081592560e+00 1632 
3.65530664062500e+03 1.22188496093750e+04 9.47149932384491e-01 1633 
6.96675341796875e+03 8.86402441406250e+03 9.90015387535095e-01 1634 
7.57145849609375e+03 5.91978173828125e+03 1.28431951999664e+00 1636 
7.52897314453125e+03 5.87650000000000e+03 1.59150803089142e+00 1637 
3.89557763671875e+03 5.48868225097656e+02 1.30758440494537e+00 1638 
6.58088525390625e+03 4.91124169921875e+03 1.19181227684021e+00 1639 
6.93557666015625e+03 4.61732373046875e+03 1.51803684234619e+00 1640 
4.43740039062500e+03 1.16782939453125e+04 1.83106148242950e+00 1641 
4.34544873046875e+03 1.06324150390625e+04 1.45480489730835e+00 1642 
