ply
format ascii 1.0
element vertex 701
property double x
property double y
property double size
property short id
end_header
1.49045080566406e+03 8.00105371093750e+03 1.25427043437958e+00 51 
1.56805114746094e+03 7.81402587890625e+03 1.22058761119843e+00 52 
3.51981030273438e+03 6.97088671875000e+03 9.69711363315582e-01 53 
1.82732812500000e+03 6.54391748046875e+03 1.28861057758331e+00 54 
1.26430859375000e+03 6.09431347656250e+03 1.48083567619324e+00 55 
4.74491210937500e+03 5.42014208984375e+03 1.23013091087341e+00 56 
1.67502954101562e+03 6.58850146484375e+03 1.52291631698608e+00 57 
8.52310937500000e+03 9.40789355468750e+03 2.12031817436218e+00 58 
1.03821801757812e+03 6.07189111328125e+03 1.22612237930298e+00 59 
3.59702929687500e+03 8.19220996093750e+03 2.12336111068726e+00 60 
1.14390966796875e+03 6.26581689453125e+03 2.60257220268250e+00 61 
4.77549011230469e+02 5.05919384765625e+03 2.74165701866150e+00 62 
5.03240039062500e+03 4.78280371093750e+03 2.07510375976562e+00 63 
7.23190124511719e+02 4.46341015625000e+03 2.06327819824219e+00 64 
5.41525585937500e+03 4.19471728515625e+03 2.27949666976929e+00 65 
4.90073925781250e+03 2.19215405273438e+03 1.71620702743530e+00 66 
1.94017724609375e+03 4.85229101562500e+03 3.30764508247375e+00 67 
4.73833984375000e+03 1.46919006347656e+03 3.46425461769104e+00 68 
3.13076098632812e+03 7.24851367187500e+03 2.06260323524475e+00 69 
4.89157031250000e+03 5.61380517578125e+03 1.90050137042999e+00 70 
5.21765478515625e+03 3.15290380859375e+03 2.01495432853699e+00 71 
3.89082373046875e+03 4.91254052734375e+03 2.99174761772156e+00 72 
3.57146508789062e+03 4.26667480468750e+03 2.92908954620361e+00 73 
4.25873535156250e+02 6.78782031250000e+03 2.61264634132385e+00 74 
3.57115576171875e+03 6.53566015625000e+03 1.96719229221344e+00 75 
3.04716748046875e+03 6.24519970703125e+03 1.55292892456055e+00 76 
5.44254199218750e+03 5.53696630859375e+03 2.75616788864136e+00 77 
2.29470434570312e+03 7.31862792968750e+03 1.30688583850861e+00 78 
5.19287988281250e+03 3.12701171875000e+03 1.39606368541718e+00 79 
1.89433471679688e+03 6.55083203125000e+03 1.58999526500702e+00 80 
1.11633679199219e+03 6.27866845703125e+03 1.58927178382874e+00 81 
3.12742480468750e+03 6.17652734375000e+03 1.64741408824921e+00 82 
4.96875878906250e+03 4.73715429687500e+03 1.61977863311768e+00 83 
5.21294482421875e+03 3.15012011718750e+03 1.64891517162323e+00 84 
1.18271057128906e+03 7.83133984375000e+03 1.33241844177246e+00 85 
1.19753930664062e+03 5.68703906250000e+03 1.09654331207275e+00 86 
5.51025146484375e+03 3.02773010253906e+02 1.09839010238647e+00 87 
1.74985278320312e+03 6.48321728515625e+03 1.54284906387329e+00 88 
4.40472509765625e+03 5.42841894531250e+03 1.62752807140350e+00 89 
2.29195019531250e+03 7.32547558593750e+03 1.22839295864105e+00 90 
1.75564733886719e+03 6.52193310546875e+03 1.31515288352966e+00 91 
2.53245654296875e+03 3.29529809570312e+03 1.20733964443207e+00 92 
4.04509326171875e+03 7.29209521484375e+03 4.36032056808472e+00 93 
4.05714062500000e+03 6.81151367187500e+03 8.78344917297363e+00 94 
4.11991845703125e+03 6.54603564453125e+03 1.46139211654663e+01 95 
4.30641210937500e+03 6.03162597656250e+03 1.03073043823242e+01 96 
4.22116113281250e+03 6.28167285156250e+03 1.35298767089844e+01 97 
2.98649462890625e+03 1.71106555175781e+03 1.30259466171265e+01 98 
1.77561987304688e+03 7.00519628906250e+03 9.46786499023438e+00 99 
3.03809204101562e+03 1.74532617187500e+03 1.33487224578857e+01 100 
4.01130908203125e+03 7.51637255859375e+03 1.66140270233154e+01 101 
5.59300927734375e+03 4.77491894531250e+03 2.68063087463379e+01 102 
4.36348339843750e+03 7.88097900390625e+02 4.32386016845703e+01 103 
5.64701904296875e+03 4.34984863281250e+03 3.02968668937683e+00 104 
1.54171789550781e+03 4.13819677734375e+03 3.31745386123657e+00 105 
1.46346557617188e+03 3.90294946289062e+03 2.89018535614014e+00 106 
2.80557159423828e+02 7.49757080078125e+03 1.98754239082336e+00 107 
4.59202294921875e+03 7.46944775390625e+03 2.04058957099915e+00 108 
1.43841638183594e+03 6.98045849609375e+03 2.08755826950073e+00 109 
4.86772167968750e+03 6.93967724609375e+03 2.03195548057556e+00 110 
1.46965124511719e+03 3.64963842773438e+03 2.03577756881714e+00 111 
5.34422412109375e+03 3.44780273437500e+03 2.57937574386597e+00 112 
5.56876220703125e+03 3.41575122070312e+03 2.39461898803711e+00 113 
6.01468261718750e+03 2.89124511718750e+03 2.38126420974731e+00 114 
2.21470916748047e+02 2.16479760742188e+03 2.68852496147156e+00 115 
3.59660247802734e+02 1.04097985839844e+03 1.77899610996246e+00 116 
1.34265759277344e+03 1.03110998535156e+03 2.32937574386597e+00 117 
1.33635266113281e+03 5.77292480468750e+02 2.41841602325439e+00 118 
1.32962121582031e+03 6.64729199218750e+03 3.23359704017639e+00 119 
5.67077197265625e+03 6.73321142578125e+03 3.19616007804871e+00 120 
6.01703955078125e+03 5.87236181640625e+03 2.97459125518799e+00 121 
1.94723193359375e+03 4.84730322265625e+03 2.89652800559998e+00 122 
6.09696533203125e+03 2.03497253417969e+03 2.80600357055664e+00 123 
2.34068066406250e+03 8.21722167968750e+03 2.46350479125977e+00 124 
2.75670556640625e+03 7.95769433593750e+03 2.76456975936890e+00 125 
2.84829406738281e+02 7.42838574218750e+03 2.14421463012695e+00 126 
2.68622607421875e+03 6.07531298828125e+03 1.85163295269012e+00 127 
7.50004455566406e+02 4.92503320312500e+03 2.04346132278442e+00 128 
1.34484350585938e+03 1.00731134033203e+03 2.34897780418396e+00 129 
4.44125195312500e+03 3.45457226562500e+03 2.99182224273682e+00 130 
5.46471972656250e+03 1.22404809570312e+03 3.22244858741760e+00 131 
1.53711987304688e+03 3.22008911132812e+03 1.36001849174500e+00 132 
2.25179107666016e+02 7.58706005859375e+03 2.45887923240662e+00 133 
5.67140869140625e+03 7.67291650390625e+03 2.05622673034668e+00 134 
1.72787414550781e+03 5.19272265625000e+03 2.13763117790222e+00 135 
5.54451171875000e+03 3.44642016601562e+03 2.59413576126099e+00 136 
3.74670605468750e+03 3.10862646484375e+03 1.79282438755035e+00 137 
6.12782568359375e+03 3.17590429687500e+03 2.53702640533447e+00 138 
6.14667431640625e+03 3.09609936523438e+03 2.67282223701477e+00 139 
3.37040869140625e+03 2.64851464843750e+03 1.96486711502075e+00 140 
1.91106176757812e+03 2.16100439453125e+03 1.86971831321716e+00 141 
1.99699499511719e+03 1.97231628417969e+03 2.60821866989136e+00 142 
6.12659423828125e+03 2.14038818359375e+03 2.42018032073975e+00 143 
2.38873071289062e+03 1.25343408203125e+03 3.16500616073608e+00 144 
1.34157592773438e+03 1.05501147460938e+03 2.54770660400391e+00 145 
5.36602630615234e+01 7.44737744140625e+03 3.29431319236755e+00 146 
3.58883935546875e+03 9.62809509277344e+02 3.12426519393921e+00 147 
1.42551708984375e+03 1.17776702880859e+02 1.15845036506653e+00 148 
3.03807031250000e+03 8.14117871093750e+03 1.55505049228668e+00 149 
4.52192089843750e+03 7.71626464843750e+03 1.47951078414917e+00 150 
2.82769604492188e+03 5.65880859375000e+03 1.68337976932526e+00 151 
2.21599487304688e+03 4.08590795898438e+03 1.44061350822449e+00 152 
2.21712353515625e+03 4.07849853515625e+03 1.41829109191895e+00 153 
2.48838061523438e+03 4.02704956054688e+03 1.66295695304871e+00 154 
1.21924263000488e+02 2.24747973632812e+03 1.49360120296478e+00 155 
5.09700341796875e+03 1.64629882812500e+03 1.47918844223022e+00 156 
3.28179663085938e+03 1.04245825195312e+03 1.59729707241058e+00 157 
4.71555712890625e+03 2.44175689697266e+02 1.55555820465088e+00 158 
2.17238256835938e+03 8.08304931640625e+03 2.14931344985962e+00 159 
3.85508026123047e+02 7.07160937500000e+03 2.36208009719849e+00 160 
3.88675048828125e+03 7.16190576171875e+03 1.84637415409088e+00 161 
2.09837207031250e+03 6.39322949218750e+03 2.40901064872742e+00 162 
3.21311425781250e+03 5.91046679687500e+03 1.52806699275970e+00 163 
6.67442138671875e+02 4.91474951171875e+03 2.34823012351990e+00 164 
4.75681686401367e+01 4.61108691406250e+03 2.04665064811707e+00 165 
1.92839004516602e+02 4.18260302734375e+03 2.01863932609558e+00 166 
5.57774511718750e+03 3.42319531250000e+03 2.63719916343689e+00 167 
6.08976757812500e+03 3.00852563476562e+03 2.45163846015930e+00 168 
6.02077001953125e+03 2.90088208007812e+03 2.44151735305786e+00 169 
3.81289355468750e+03 6.76494873046875e+02 1.70685493946075e+00 170 
6.19172460937500e+03 4.11513458251953e+02 1.96586370468140e+00 171 
4.85957214355469e+02 1.18101257324219e+02 1.58561277389526e+00 172 
3.48631494140625e+03 6.05288134765625e+03 4.25743865966797e+00 173 
6.19698193359375e+03 6.02550048828125e+03 3.12436246871948e+00 174 
3.88342529296875e+03 4.91070605468750e+03 3.22627544403076e+00 175 
2.72102246093750e+03 4.46163818359375e+03 3.20862507820129e+00 176 
5.68590136718750e+03 4.33445263671875e+03 3.14903211593628e+00 177 
3.79146411132812e+03 3.00418334960938e+03 3.38861870765686e+00 178 
4.52448291015625e+03 1.98283471679688e+03 2.93400263786316e+00 179 
2.49725540161133e+02 7.08442504882812e+02 2.96998262405396e+00 180 
1.91813427734375e+03 2.71591979980469e+02 3.00148868560791e+00 181 
3.18657080078125e+03 7.30405957031250e+03 2.51898932456970e+00 182 
5.43210205078125e+03 6.80793847656250e+03 2.32284760475159e+00 183 
5.88756689453125e+03 5.83297802734375e+03 2.43079018592834e+00 184 
2.73477319335938e+03 5.68504541015625e+03 2.17555761337280e+00 185 
2.42549487304688e+03 4.39243603515625e+03 1.91130924224854e+00 186 
5.65990576171875e+03 4.34452099609375e+03 2.87837433815002e+00 187 
3.23968920898438e+03 4.20493847656250e+03 1.76167809963226e+00 188 
6.04548583984375e+03 2.93994238281250e+03 2.50223159790039e+00 189 
1.38091760253906e+03 6.64390563964844e+02 2.28291773796082e+00 190 
1.90254089355469e+03 2.61505584716797e+02 3.21062040328979e+00 191 
5.94245556640625e+03 7.19348681640625e+03 5.22084712982178e+00 192 
3.87344140625000e+03 4.98196191406250e+03 5.79927873611450e+00 193 
2.15846801757812e+03 1.07608276367188e+03 4.76045656204224e+00 194 
2.71104064941406e+02 6.82420959472656e+02 4.23139095306396e+00 195 
4.02433520507812e+03 3.19016845703125e+02 4.21791839599609e+00 196 
3.88747875976562e+03 4.95272753906250e+03 4.17395639419556e+00 197 
4.06403442382812e+03 3.34741912841797e+02 5.64405202865601e+00 198 
5.95018945312500e+03 5.04538867187500e+03 6.04796791076660e+00 199 
4.53000000000000e+03 1.98209399414062e+03 6.64991998672485e+00 200 
4.04678637695312e+03 3.50684692382812e+02 6.68572711944580e+00 201 
5.15320263671875e+03 9.53407043457031e+02 5.49138736724854e+00 202 
2.04923022460938e+03 1.95331283569336e+02 4.47613954544067e+00 203 
4.70920751953125e+03 1.32927441406250e+03 6.82095527648926e+00 204 
3.66306958007812e+03 5.49104443359375e+03 4.04967069625854e+00 205 
6.05368408203125e+03 5.33825866699219e+02 4.08967924118042e+00 206 
5.04859570312500e+03 4.37028027343750e+03 7.06502532958984e+00 207 
2.11420654296875e+03 3.67600341796875e+02 6.68976640701294e+00 208 
2.76330352783203e+02 8.15386376953125e+03 3.91072654724121e+00 209 
5.93629052734375e+03 7.20759619140625e+03 5.40758419036865e+00 210 
2.83485107421875e+03 2.26525878906250e+03 3.91365146636963e+00 211 
4.65735742187500e+03 7.33719042968750e+03 1.51746213436127e+00 212 
3.40815429687500e+03 5.53765429687500e+03 1.50135850906372e+00 213 
5.37464416503906e+02 5.13436279296875e+03 1.68083906173706e+00 214 
4.01144946289062e+03 2.20427246093750e+03 1.36171436309814e+00 215 
7.13283789062500e+03 4.63323535156250e+03 9.45548653602600e-01 216 
4.30799511718750e+03 6.02178271484375e+03 1.34618902206421e+00 217 
2.57945922851562e+03 5.90944384765625e+03 1.12978208065033e+00 218 
4.20518701171875e+03 4.05081616210938e+03 1.51086032390594e+00 219 
1.10347595214844e+03 8.75684667968750e+03 3.06352829933167e+00 220 
2.79775634765625e+03 3.14788623046875e+03 1.16632294654846e+00 221 
1.65610583496094e+03 2.38202392578125e+03 1.14455115795135e+00 222 
4.09611328125000e+03 2.20595288085938e+03 1.03531312942505e+00 223 
3.68160913085938e+03 8.30484570312500e+03 1.58537268638611e+00 224 
2.71772241210938e+03 7.98610937500000e+03 1.75472724437714e+00 225 
2.31153881835938e+03 7.26229785156250e+03 1.74672877788544e+00 226 
4.41688623046875e+03 6.31846386718750e+03 1.59415566921234e+00 227 
6.02114990234375e+03 6.25469091796875e+03 1.69925940036774e+00 228 
3.48401245117188e+03 6.08160937500000e+03 1.79451310634613e+00 229 
3.53774023437500e+03 4.03519580078125e+03 1.53723454475403e+00 230 
9.15326416015625e+02 3.66032519531250e+03 1.32023119926453e+00 231 
2.18674194335938e+03 4.44483276367188e+02 1.49580645561218e+00 232 
2.34012680053711e+02 7.55443115234375e+03 1.56392717361450e+00 233 
3.58008984375000e+03 7.40977343750000e+03 1.36938309669495e+00 234 
3.09251757812500e+03 7.26011914062500e+03 1.37074744701385e+00 235 
4.89304980468750e+03 5.60982617187500e+03 1.13692569732666e+00 236 
2.21606494140625e+03 5.07279296875000e+03 1.03343272209167e+00 237 
6.20845520019531e+02 3.74188623046875e+03 1.90543651580811e+00 238 
5.12052246093750e+02 3.72309936523438e+03 1.05489313602448e+00 239 
1.79034680175781e+03 2.97954443359375e+03 1.15619921684265e+00 240 
1.63380480957031e+03 1.94021325683594e+03 1.34487450122833e+00 241 
1.48803015136719e+03 1.63229263305664e+02 1.12916982173920e+00 242 
5.21906250000000e+03 4.15261328125000e+03 1.48623216152191e+00 243 
9.61704833984375e+02 2.10569970703125e+03 1.73620092868805e+00 244 
3.60874975585938e+03 9.73112731933594e+02 1.74497008323669e+00 245 
5.62579882812500e+03 1.83884289550781e+03 1.41472983360291e+00 246 
6.19488403320312e+02 2.82728442382812e+03 1.45921051502228e+00 247 
5.16495239257812e+02 1.61905200195312e+03 1.38681375980377e+00 248 
3.91052185058594e+02 6.65796997070312e+02 9.88781511783600e-01 249 
5.36739062500000e+03 6.47501159667969e+02 1.23789191246033e+00 250 
3.18106152343750e+03 6.08826026916504e+01 1.24257373809814e+00 251 
5.58302880859375e+03 8.11685937500000e+03 1.39403486251831e+00 252 
4.10446630859375e+03 1.15056923828125e+04 1.80570018291473e+00 253 
4.08624707031250e+03 6.34822705078125e+03 1.85142469406128e+00 254 
2.82018750000000e+03 5.67997705078125e+03 1.66669464111328e+00 255 
3.67789331054688e+03 3.31981860351562e+03 1.49511826038361e+00 256 
3.96747631835938e+03 2.38191699218750e+03 1.53555083274841e+00 257 
4.11925195312500e+03 1.10425512695312e+03 1.70128333568573e+00 258 
4.55519238281250e+03 4.80763671875000e+03 1.20138514041901e+00 259 
3.27526702880859e+02 4.04338476562500e+03 1.16539716720581e+00 260 
3.57397851562500e+03 3.94606713867188e+03 1.51507294178009e+00 261 
7.08450537109375e+03 8.68003515625000e+03 5.74312973022461e+00 262 
5.93583642578125e+03 2.82653295898438e+03 1.24282968044281e+00 263 
5.94437255859375e+03 2.81851635742188e+03 1.28468286991119e+00 264 
4.51566345214844e+02 1.14191931152344e+03 1.13107514381409e+00 265 
3.53377172851562e+03 1.10490380859375e+03 1.43786430358887e+00 266 
4.08430175781250e+03 4.20575942993164e+01 9.22677040100098e-01 267 
1.73586950683594e+03 5.04054541015625e+03 1.58746039867401e+00 268 
1.70889965820312e+03 4.89970214843750e+03 1.13718080520630e+00 269 
4.40535791015625e+03 4.46142187500000e+03 1.56501173973083e+00 270 
2.84352539062500e+03 4.34459423828125e+03 1.56801736354828e+00 271 
3.68989404296875e+03 3.72973681640625e+03 1.20498955249786e+00 272 
3.75586425781250e+03 3.31411962890625e+03 1.60045742988586e+00 273 
3.76024975585938e+03 3.30635766601562e+03 1.67110168933868e+00 274 
1.94123449707031e+03 2.44289233398438e+03 1.59896802902222e+00 275 
7.96292358398438e+02 1.04565820312500e+03 1.73609113693237e+00 276 
3.77859863281250e+03 3.40918701171875e+02 9.63098585605621e-01 277 
4.36391455078125e+03 6.64358789062500e+03 1.22253227233887e+00 278 
2.69603515625000e+03 5.72682568359375e+03 1.04666554927826e+00 279 
5.70222119140625e+03 7.69733203125000e+03 2.26906800270081e+00 281 
1.64373547363281e+03 5.88864746093750e+03 2.49909448623657e+00 282 
2.70569921875000e+03 5.75323388671875e+03 2.25233125686646e+00 283 
2.74432763671875e+03 5.64967187500000e+03 2.60649633407593e+00 284 
5.44948388671875e+03 5.53328662109375e+03 2.15873169898987e+00 285 
3.06517358398438e+03 5.31369140625000e+03 1.99444067478180e+00 286 
1.39563232421875e+03 4.98093359375000e+03 2.53309917449951e+00 287 
6.78101379394531e+02 4.91679736328125e+03 2.13411831855774e+00 288 
4.51734912109375e+03 3.23136694335938e+03 2.01112556457520e+00 289 
3.36245532226562e+03 2.58342602539062e+03 1.83955836296082e+00 290 
4.89450195312500e+03 2.19259838867188e+03 2.37619328498840e+00 291 
4.65256396484375e+03 2.28338897705078e+02 2.39058089256287e+00 292 
6.22672851562500e+03 3.20320465087891e+02 3.22665143013000e+00 293 
4.42114306640625e+03 8.09533544921875e+03 2.09353423118591e+00 294 
4.39860693359375e+03 8.05013476562500e+03 2.14201331138611e+00 295 
4.38750341796875e+03 8.03546728515625e+03 2.28143286705017e+00 296 
1.08970068359375e+03 7.91538330078125e+03 2.42546772956848e+00 297 
5.61842333984375e+03 8.04034667968750e+03 2.02926516532898e+00 298 
5.08063818359375e+03 7.54698046875000e+03 2.80346345901489e+00 299 
3.78753082275391e+02 7.09116015625000e+03 2.71214342117310e+00 300 
4.76451611328125e+03 6.95686181640625e+03 1.92520761489868e+00 301 
2.08826123046875e+03 6.41426220703125e+03 2.42685151100159e+00 302 
4.40937011718750e+03 5.42626416015625e+03 1.96562123298645e+00 303 
2.04227340698242e+02 4.17310791015625e+03 2.25641202926636e+00 304 
5.69812792968750e+03 4.32795751953125e+03 2.48220038414001e+00 305 
4.38365380859375e+03 3.70338183593750e+03 3.15668845176697e+00 306 
5.42954394531250e+03 3.47767895507812e+03 2.49566125869751e+00 307 
4.67768945312500e+03 1.47972314453125e+03 2.50227403640747e+00 308 
3.31596948242188e+03 1.07374829101562e+03 2.31240558624268e+00 309 
1.34502429199219e+03 6.36014709472656e+02 2.39660024642944e+00 310 
4.74245214843750e+03 6.78533496093750e+03 3.56819748878479e+00 311 
5.72037744140625e+03 6.17144580078125e+03 3.28885459899902e+00 312 
1.00494641113281e+03 4.83525146484375e+03 3.44039177894592e+00 313 
4.96219140625000e+03 4.73979296875000e+03 3.38410878181458e+00 314 
4.18151074218750e+03 3.00395874023438e+03 3.25995922088623e+00 315 
1.18034570312500e+03 7.75600537109375e+03 2.80721402168274e+00 316 
5.86996875000000e+03 7.51641601562500e+03 2.70471572875977e+00 317 
1.73148391723633e+02 6.44518115234375e+03 2.68519282341003e+00 318 
3.04098217773438e+03 4.87275292968750e+03 2.26697301864624e+00 319 
1.46095812988281e+03 3.91511596679688e+03 2.55647516250610e+00 320 
2.66377380371094e+02 2.74747680664062e+03 2.01730966567993e+00 321 
5.91440722656250e+03 1.61839086914062e+03 2.29069852828979e+00 322 
3.57684472656250e+03 9.63025756835938e+02 1.79902589321136e+00 323 
1.37230419921875e+03 6.56698364257812e+02 2.03227424621582e+00 324 
2.04465576171875e+03 2.08576995849609e+02 2.10830187797546e+00 325 
5.02322814941406e+02 4.00391044616699e+01 2.91326951980591e+00 326 
1.96119775390625e+03 8.16420849609375e+03 3.60019779205322e+00 327 
3.07870556640625e+03 7.86557666015625e+03 1.19530344009399e+00 328 
3.13430200195312e+03 6.96699121093750e+03 1.29749810695648e+00 329 
2.98601708984375e+03 5.99770556640625e+03 1.30402898788452e+00 330 
8.11600418090820e+01 5.24654687500000e+03 1.32593262195587e+00 331 
4.05251977539062e+03 4.08341772460938e+03 1.44553148746490e+00 332 
1.53685571289062e+03 3.52655224609375e+03 1.16024219989777e+00 333 
2.90189038085938e+03 3.20106079101562e+03 1.16711032390594e+00 334 
7.58941308593750e+03 1.03987167968750e+04 1.91242802143097e+00 335 
5.08011132812500e+03 5.53054345703125e+03 8.95439028739929e-01 336 
2.78171826171875e+03 7.33442871093750e+03 1.24034357070923e+00 337 
1.67887890625000e+03 6.58728710937500e+03 1.47947847843170e+00 338 
2.51320410156250e+03 3.07646484375000e+03 1.41640698909760e+00 339 
1.27935229492188e+03 1.99691748046875e+03 1.64508509635925e+00 340 
1.08729138183594e+03 1.82837829589844e+03 1.70900762081146e+00 341 
6.29063769531250e+03 1.36773120117188e+03 1.37147414684296e+00 342 
4.83637597656250e+03 2.48565292358398e+02 1.45444357395172e+00 343 
5.32253076171875e+03 7.12116796875000e+03 1.40860009193420e+00 344 
2.22372656250000e+03 4.66453076171875e+03 1.14222455024719e+00 345 
4.66237396240234e+02 3.05204687500000e+03 1.16975796222687e+00 346 
3.81125366210938e+03 2.95428979492188e+03 1.20213925838470e+00 347 
1.92737988281250e+03 2.75115063476562e+03 1.18917083740234e+00 348 
5.70950146484375e+03 1.93306991577148e+02 1.14314639568329e+00 349 
4.72427978515625e+03 7.18433447265625e+03 1.68351423740387e+00 350 
3.15111987304688e+03 4.61378027343750e+03 1.40149903297424e+00 351 
1.79954113769531e+03 3.52907958984375e+03 1.56788897514343e+00 352 
2.36940307617188e+03 2.99188549804688e+03 1.39717733860016e+00 353 
5.81054785156250e+03 2.99161645507812e+03 1.59760951995850e+00 354 
4.92835791015625e+03 2.94139599609375e+03 1.66784930229187e+00 355 
9.56065612792969e+02 2.10337255859375e+03 1.57445204257965e+00 356 
2.25086303710938e+03 2.08183105468750e+03 1.60771179199219e+00 357 
5.04718017578125e+03 4.99493994140625e+03 1.10591030120850e+00 358 
4.54745507812500e+03 4.80489990234375e+03 1.08921289443970e+00 359 
5.16834179687500e+03 3.13185498046875e+03 1.24731671810150e+00 360 
4.63079742431641e+02 2.24307421875000e+03 9.89377498626709e-01 361 
1.86848937988281e+02 1.78735595703125e+03 1.37162804603577e+00 362 
4.27866943359375e+02 1.12299926757812e+03 1.13923764228821e+00 363 
1.05214575195312e+03 6.46650244140625e+03 6.05898761749268e+00 364 
4.98056884765625e+03 2.06203063964844e+02 6.87334156036377e+00 365 
4.77016699218750e+03 8.19888574218750e+03 5.23953580856323e+00 366 
5.70632421875000e+03 1.34549157714844e+03 4.89717578887939e+00 367 
3.66027124023438e+03 7.88831481933594e+02 6.84668350219727e+00 368 
4.63821441650391e+02 5.13611083984375e+03 4.68232202529907e+00 369 
5.08955273437500e+03 7.72140429687500e+03 6.49859666824341e+00 370 
4.06094458007812e+03 6.85722851562500e+03 9.53658199310303e+00 371 
1.46824060058594e+03 1.78803430175781e+03 1.22284650802612e+01 372 
3.29557641601562e+03 1.07115405273438e+03 1.15052518844604e+01 373 
5.74172119140625e+03 1.24077659606934e+02 7.22753858566284e+00 374 
4.68593359375000e+03 6.16291259765625e+03 9.71969699859619e+00 375 
1.26991198730469e+03 5.80094921875000e+03 8.00213146209717e+00 376 
4.17437646484375e+03 1.32917590332031e+03 8.14361190795898e+00 377 
4.87672656250000e+03 3.58814025878906e+02 7.50595855712891e+00 378 
3.23924096679688e+03 8.54938354492188e+02 9.00753593444824e+00 379 
2.06154370117188e+03 3.40062683105469e+02 8.30159854888916e+00 380 
4.11470410156250e+03 1.08532177734375e+03 1.00747013092041e+01 381 
1.54936926269531e+03 1.67898645019531e+03 6.92014026641846e+00 382 
5.92474316406250e+03 1.58114257812500e+03 9.32713508605957e+00 383 
3.64577294921875e+03 1.26425866699219e+03 1.06231336593628e+01 384 
4.17342871093750e+03 1.15890722656250e+03 9.02709388732910e+00 385 
2.89929223632812e+03 1.69484667968750e+03 1.53576602935791e+01 386 
4.09810693359375e+03 7.32718115234375e+03 1.66492576599121e+01 387 
6.56921936035156e+02 6.09127099609375e+03 3.42483901977539e+00 390 
4.02213305664062e+03 2.27630737304688e+03 1.83471822738647e+00 391 
3.15354345703125e+03 8.32383346557617e+01 1.88338077068329e+00 395 
1.35234313964844e+03 4.93023437500000e+03 2.49561619758606e+00 397 
2.50846850585938e+03 7.16651806640625e+03 2.93151831626892e+00 400 
4.98145849609375e+03 5.68930175781250e+03 1.89099264144897e+00 402 
1.50256750488281e+03 4.56513281250000e+03 1.99337971210480e+00 404 
4.95519824218750e+03 1.09512255859375e+03 2.44949936866760e+00 405 
3.11712597656250e+03 6.17252636718750e+03 1.67772364616394e+00 411 
4.43630761718750e+03 5.44008203125000e+03 1.63362216949463e+00 412 
1.18716845703125e+03 5.19675341796875e+03 2.26686573028564e+00 417 
2.23283154296875e+03 7.70513623046875e+03 3.26156377792358e+00 420 
1.10316943359375e+03 7.46169726562500e+03 2.22982072830200e+00 423 
1.42094772338867e+02 1.82433569335938e+03 2.67890429496765e+00 426 
1.17908410644531e+03 5.66060546875000e+03 2.88794422149658e+00 428 
1.18928137207031e+03 7.20064843750000e+03 3.09479784965515e+00 430 
8.10397338867188e+02 4.91477929687500e+03 3.46991968154907e+00 434 
2.91480541992188e+03 3.44839990234375e+03 1.83174037933350e+00 446 
4.66580810546875e+02 7.10710009765625e+03 1.71668648719788e+00 451 
3.05604760742188e+03 3.96153100585938e+03 1.52321898937225e+00 452 
2.93617626953125e+03 8.17129687500000e+03 1.11362564563751e+00 460 
1.94130334472656e+03 4.86358837890625e+03 1.66471552848816e+00 463 
2.23191967773438e+03 4.33143994140625e+03 1.48641812801361e+00 464 
5.50603955078125e+03 3.06243438720703e+02 1.30942118167877e+00 470 
1.37348889160156e+03 2.09309863281250e+03 2.62266373634338e+00 475 
3.15034692382812e+03 8.26294042968750e+03 1.91905748844147e+00 477 
6.02601074218750e+03 6.25199267578125e+03 2.24634933471680e+00 479 
3.23708618164062e+03 5.83043994140625e+03 2.04842066764832e+00 484 
1.47949157714844e+03 3.23488696289062e+03 1.51210570335388e+00 487 
5.64711120605469e+02 1.70677160644531e+03 2.02178359031677e+00 488 
4.92422802734375e+03 1.06386352539062e+03 2.95614600181580e+00 490 
6.08289355468750e+03 6.63351660156250e+03 9.72310841083527e-01 491 
2.98932153320312e+03 5.33151269531250e+03 1.45178556442261e+00 495 
9.91062438964844e+02 3.55456030273438e+03 1.28917396068573e+00 496 
6.01371386718750e+03 5.51899536132812e+02 3.94035673141479e+00 505 
6.15419384765625e+03 4.70371459960938e+02 3.96247673034668e+00 506 
4.97150000000000e+03 4.74363085937500e+03 3.27337765693665e+00 510 
1.86887365722656e+03 7.78015820312500e+03 2.29101324081421e+00 512 
6.03042236328125e+03 6.24770751953125e+03 2.11058306694031e+00 516 
4.94931347656250e+03 1.09649609375000e+03 2.25215601921082e+00 521 
7.12168994140625e+03 6.30242236328125e+03 2.51916170120239e+00 526 
3.57628369140625e+03 6.53891455078125e+03 2.59850454330444e+00 527 
6.14566943359375e+03 3.20261010742188e+03 2.89594197273254e+00 530 
1.54551782226562e+03 2.36699072265625e+03 1.74996769428253e+00 531 
2.75016357421875e+03 4.55031005859375e+03 3.58775305747986e+00 533 
1.06690734863281e+03 7.90577734375000e+03 2.68524503707886e+00 536 
5.90189257812500e+03 6.42903564453125e+03 1.95049250125885e+00 539 
1.17290136718750e+03 5.66488281250000e+03 2.18807363510132e+00 541 
1.15814904785156e+03 3.42337011718750e+03 2.02729415893555e+00 544 
1.37454382324219e+03 3.09067651367188e+03 2.65394449234009e+00 547 
4.89210839843750e+03 1.83339343261719e+03 2.21741604804993e+00 549 
9.41119628906250e+02 2.96511352539062e+03 1.06619691848755e+00 552 
2.10324487304688e+03 6.38195947265625e+03 2.43525838851929e+00 566 
1.02157965087891e+03 4.81212060546875e+03 1.65092515945435e+00 576 
3.94518359375000e+03 6.59049316406250e+03 2.97145533561707e+00 585 
3.68349707031250e+03 6.58024707031250e+03 3.49868154525757e+00 587 
6.36982849121094e+02 7.32007324218750e+03 4.00554800033569e+00 592 
1.32257543945312e+03 5.66897558593750e+03 4.96019697189331e+00 593 
3.97370147705078e+02 5.51227929687500e+03 5.13588714599609e+00 594 
5.44834228515625e+03 1.71872705078125e+03 3.85790014266968e+00 597 
5.08127587890625e+03 7.55862695312500e+03 4.90642929077148e+00 602 
5.29387158203125e+03 7.32804394531250e+03 5.58017683029175e+00 603 
4.86095703125000e+03 7.96230761718750e+03 6.20443868637085e+00 607 
2.17822729492188e+03 4.10062316894531e+02 6.53035783767700e+00 609 
3.46203295898438e+03 2.44717260742188e+03 5.34804439544678e+00 613 
4.75817529296875e+03 1.73065475463867e+02 1.30158579349518e+00 617 
3.23085009765625e+03 9.78122375488281e+02 1.58754551410675e+00 625 
1.42900891113281e+03 1.23251937866211e+02 1.34997224807739e+00 643 
5.39640869140625e+03 8.39020214843750e+03 1.51151895523071e+00 644 
2.96130883789062e+03 3.21383178710938e+03 1.71031451225281e+00 651 
4.31702001953125e+03 3.21547778320312e+03 1.26145923137665e+00 652 
2.41656860351562e+03 2.00605139160156e+03 1.79787051677704e+00 653 
1.74958776855469e+03 5.07150781250000e+03 1.33523905277252e+00 658 
1.49342803955078e+02 4.16330468750000e+03 1.33549773693085e+00 660 
3.09771142578125e+03 2.51713574218750e+03 1.09552061557770e+00 665 
2.36114184570312e+03 8.15877294921875e+03 1.17792510986328e+00 677 
2.74627587890625e+03 5.65943750000000e+03 1.14943361282349e+00 682 
2.55552929687500e+03 3.46122778320312e+03 1.09179735183716e+00 683 
4.35432275390625e+03 3.02649633789062e+03 1.38594567775726e+00 696 
9.69690490722656e+02 2.07896435546875e+03 1.77773237228394e+00 697 
2.68352490234375e+03 6.66428906250000e+03 1.21870350837708e+00 700 
4.08570654296875e+03 3.99496582031250e+03 1.33059263229370e+00 703 
2.29316210937500e+03 7.31471630859375e+03 1.68779814243317e+00 707 
5.53312890625000e+03 5.16534484863281e+02 1.70305311679840e+00 715 
1.15660705566406e+03 6.90035253906250e+03 2.68588328361511e+00 716 
4.78172851562500e+03 6.89277587890625e+03 2.04759454727173e+00 718 
2.14936108398438e+03 2.53216870117188e+03 2.51746749877930e+00 724 
5.38528759765625e+03 1.28646606445312e+03 3.05691003799438e+00 725 
5.74659960937500e+03 6.36220507812500e+03 2.01989459991455e+00 731 
3.17798437500000e+03 7.30094433593750e+03 2.70351886749268e+00 738 
2.10337915039062e+03 5.82719531250000e+03 1.99853003025055e+00 746 
1.12068031311035e+02 4.10568701171875e+03 3.32043790817261e+00 749 
4.30433544921875e+03 3.15186596679688e+03 2.80463242530823e+00 753 
4.59510351562500e+03 7.55185058593750e+03 1.31895971298218e+00 759 
1.71780383300781e+03 6.79391796875000e+03 1.11960625648499e+00 760 
2.87415478515625e+03 6.53581494140625e+03 1.26246964931488e+00 761 
9.12718017578125e+02 3.65589086914062e+03 1.21346759796143e+00 765 
2.36491748046875e+03 8.17296923828125e+03 1.23273217678070e+00 785 
3.68622485351562e+03 8.30628515625000e+03 1.32817840576172e+00 799 
3.70502612304688e+03 7.85433349609375e+03 1.39669895172119e+00 801 
2.92210571289062e+02 6.55563183593750e+03 1.80703246593475e+00 802 
4.58149810791016e+02 1.68882675170898e+02 1.73022902011871e+00 805 
2.67794287109375e+03 6.70557275390625e+03 1.24910783767700e+00 806 
4.95387969970703e+02 2.88897485351562e+03 1.00292980670929e+00 816 
1.91106884765625e+03 2.48420751953125e+03 1.31257855892181e+00 817 
5.11513964843750e+03 7.46253808593750e+03 4.76283025741577e+00 823 
5.55103759765625e+03 8.27801953125000e+03 6.69177436828613e+00 824 
5.00201513671875e+03 4.07705224609375e+03 3.79844331741333e+00 827 
6.05958691406250e+03 5.96142395019531e+02 3.88665366172791e+00 829 
2.86823193359375e+03 1.66543261718750e+03 9.66614818572998e+00 832 
8.81234680175781e+02 5.94381884765625e+03 2.46932911872864e+00 838 
1.82223205566406e+03 5.77309423828125e+03 1.22452580928802e+00 847 
2.38099291992188e+03 1.25533361816406e+03 2.49540400505066e+00 850 
2.51665551757812e+03 6.43217236328125e+03 2.46016883850098e+00 853 
2.03850231933594e+03 2.10928192138672e+02 2.34631657600403e+00 854 
3.28574072265625e+03 5.89006787109375e+03 1.49364864826202e+00 857 
3.03644409179688e+03 8.12839550781250e+03 1.39022374153137e+00 859 
5.99552917480469e+02 9.13049255371094e+02 2.43891596794128e+00 866 
2.71761181640625e+03 5.71761181640625e+03 2.66300106048584e+00 867 
7.06249938964844e+02 9.36187805175781e+02 3.06309390068054e+00 874 
3.20137847900391e+02 4.03782031250000e+03 1.20212268829346e+00 876 
5.57973999023438e+02 8.73323364257812e+02 2.05127215385437e+00 886 
3.33560546875000e+03 4.07018774414062e+03 1.48827469348907e+00 889 
5.15126075744629e+01 2.04614697265625e+03 1.98263537883759e+00 890 
3.74294238281250e+03 6.79442724609375e+03 1.43380546569824e+00 894 
5.38745803833008e+01 3.23203930664062e+03 1.37180387973785e+00 917 
3.45713842773438e+03 7.98513964843750e+03 1.38859498500824e+00 918 
3.24198754882812e+03 5.82831250000000e+03 1.33138489723206e+00 919 
3.09453564453125e+03 7.82280175781250e+03 1.31723630428314e+00 923 
1.60951538085938e+03 7.17741308593750e+03 1.30457425117493e+00 928 
3.08683203125000e+03 5.56226562500000e+03 2.25731706619263e+00 930 
2.75532934570312e+03 5.65321875000000e+03 2.53644657135010e+00 939 
5.36220800781250e+03 5.57042041015625e+03 1.63656151294708e+00 960 
5.78143212890625e+03 7.95125537109375e+03 2.55715131759644e+00 972 
1.01388690185547e+03 1.18936845703125e+04 1.26135337352753e+00 977 
4.94783386230469e+02 4.86029687500000e+03 1.10650455951691e+00 978 
4.21762548828125e+03 1.07121708984375e+04 1.99817872047424e+00 981 
2.06741333007812e+03 1.22076347656250e+04 2.69394922256470e+00 982 
1.16010351562500e+03 1.25335205078125e+04 3.25481700897217e+00 983 
4.37888183593750e+03 8.49750781250000e+03 2.25900030136108e+00 984 
5.62456176757812e+02 6.10143847656250e+03 3.18173837661743e+00 985 
2.30995434570312e+03 1.10355205078125e+04 4.12362766265869e+00 986 
3.93288818359375e+03 1.27304892578125e+04 5.14589738845825e+00 987 
2.72270239257812e+03 7.98654296875000e+03 2.03925728797913e+00 988 
1.47373864746094e+03 8.04228662109375e+03 2.67248511314392e+00 989 
2.79109301757812e+03 1.03131201171875e+04 2.20308685302734e+00 990 
5.07477099609375e+03 1.14137685546875e+04 2.89157819747925e+00 991 
4.88345458984375e+03 5.63506494140625e+03 2.02249240875244e+00 992 
6.05941796875000e+03 9.08478515625000e+03 2.27098584175110e+00 993 
4.04929924011230e+01 9.32495507812500e+03 1.97410237789154e+00 994 
5.10165283203125e+03 1.22992402343750e+04 2.23493266105652e+00 995 
2.48073022460938e+03 5.38739892578125e+03 3.10629773139954e+00 996 
2.79698193359375e+03 1.02334677734375e+04 3.11176800727844e+00 997 
9.63478210449219e+02 8.81593359375000e+03 2.17278742790222e+00 998 
8.66872009277344e+02 9.44207617187500e+03 2.11052680015564e+00 999 
2.54185498046875e+03 1.02919316406250e+04 2.39566731452942e+00 1000 
3.21797607421875e+02 1.14282031250000e+04 2.18377709388733e+00 1001 
4.89801904296875e+03 1.18695712890625e+04 2.41434502601624e+00 1002 
6.65554443359375e+02 8.60184179687500e+03 2.93209767341614e+00 1003 
4.01743994140625e+03 8.97876074218750e+03 3.55411100387573e+00 1004 
2.53107397460938e+03 1.23785751953125e+04 2.99493432044983e+00 1005 
1.83426159667969e+03 1.55364660644531e+03 2.68761706352234e+00 1006 
5.06250537109375e+03 5.33216552734375e+03 1.97987186908722e+00 1007 
4.52695947265625e+03 1.00755791015625e+04 4.09167814254761e+00 1008 
1.74174035644531e+03 1.11426689453125e+04 1.80554504394531e+01 1009 
3.84110107421875e+03 2.39113916015625e+03 1.01604580879211e+00 1010 
4.41869531250000e+03 5.41027734375000e+03 1.27091646194458e+00 1011 
4.31243505859375e+03 6.04655126953125e+03 1.27772140502930e+00 1012 
6.24876562500000e+03 6.41108837890625e+03 1.29327905178070e+00 1013 
3.54368261718750e+03 6.96249218750000e+03 1.02611804008484e+00 1014 
6.38477978515625e+03 7.63804052734375e+03 1.06551885604858e+00 1015 
3.00004174804688e+03 1.06245751953125e+04 1.38978469371796e+00 1016 
6.19575830078125e+03 1.15588115234375e+04 1.35934531688690e+00 1017 
2.07667724609375e+02 1.25584873046875e+04 1.02924203872681e+00 1018 
6.17228857421875e+03 4.81379980468750e+03 1.72187149524689e+00 1019 
4.94941650390625e+03 5.44495410156250e+03 1.72001194953918e+00 1020 
4.24033837890625e+03 6.23114013671875e+03 1.67032802104950e+00 1021 
7.42648864746094e+02 9.56408813476562e+02 1.12092185020447e+00 1022 
1.48423815917969e+03 4.68191992187500e+03 9.75043714046478e-01 1023 
1.14307080078125e+03 6.81670019531250e+03 1.47264206409454e+00 1024 
4.88841064453125e+03 3.66354711914062e+03 1.45374405384064e+00 1025 
3.74523583984375e+03 9.01911718750000e+03 1.77479398250580e+00 1026 
2.66593896484375e+03 2.15425659179688e+02 1.22418272495270e+00 1027 
6.41328076171875e+03 7.86295410156250e+03 1.28238427639008e+00 1028 
3.84005322265625e+03 8.58646777343750e+03 1.24738264083862e+00 1029 
4.87488427734375e+03 3.67537451171875e+03 1.54632031917572e+00 1030 
1.03085009765625e+03 8.68801074218750e+03 1.49179351329803e+00 1031 
5.64648193359375e+03 1.12124716796875e+04 1.60608363151550e+00 1032 
3.51867382812500e+03 6.97933691406250e+03 1.02825057506561e+00 1033 
1.92770092773438e+03 1.00760488281250e+04 9.90789115428925e-01 1034 
1.36089892578125e+03 1.19675205078125e+04 1.36997532844543e+00 1035 
3.21714746093750e+03 1.22714677734375e+04 1.20086860656738e+00 1036 
6.28034130859375e+03 5.11824609375000e+03 1.26780116558075e+00 1037 
4.32404150390625e+03 5.62144335937500e+03 1.08489501476288e+00 1038 
2.88871752929688e+03 8.57393359375000e+03 1.44134497642517e+00 1039 
2.24072558593750e+03 1.18906533203125e+04 9.53700125217438e-01 1040 
2.24537377929688e+03 1.18904785156250e+04 1.08560335636139e+00 1041 
6.16830993652344e+02 6.07535205078125e+03 1.43318963050842e+00 1042 
1.99068139648438e+03 7.03901660156250e+03 1.45077073574066e+00 1043 
1.25666345214844e+03 8.12444238281250e+03 1.35556149482727e+00 1044 
3.35053735351562e+03 8.22598730468750e+03 1.30024385452271e+00 1045 
3.37559838867188e+03 9.01779394531250e+03 1.36155164241791e+00 1046 
5.63992675781250e+02 1.01750400390625e+04 1.40883982181549e+00 1047 
4.20899511718750e+03 1.02365781250000e+04 1.30175340175629e+00 1048 
2.00403771972656e+03 5.47480126953125e+03 1.70670986175537e+00 1049 
2.99511376953125e+03 8.97397949218750e+03 1.63477528095245e+00 1050 
3.71250903320312e+03 9.70168750000000e+03 1.62517571449280e+00 1051 
2.67095678710938e+03 1.03565400390625e+04 1.86265027523041e+00 1052 
4.36926757812500e+03 1.24236005859375e+04 2.12746071815491e+00 1053 
4.65091113281250e+03 1.25921142578125e+04 2.24836730957031e+00 1054 
1.12061657714844e+03 6.88135058593750e+03 3.10193705558777e+00 1055 
2.01091931152344e+03 5.27696972656250e+03 1.90165603160858e+00 1056 
3.61498803710938e+03 8.14371142578125e+03 1.90583217144012e+00 1057 
6.94903686523438e+02 8.54962695312500e+03 1.83912003040314e+00 1058 
5.16500634765625e+03 1.17232832031250e+04 2.20909762382507e+00 1059 
2.17285507202148e+02 1.23571679687500e+04 2.60170316696167e+00 1060 
6.04203173828125e+03 6.24620214843750e+03 1.42784523963928e+00 1061 
4.72948828125000e+03 8.89061621093750e+03 1.74764871597290e+00 1062 
6.27041943359375e+03 3.40297485351562e+03 1.06619119644165e+00 1063 
5.25436572265625e+03 3.69279589843750e+03 9.34257388114929e-01 1064 
3.04652099609375e+03 8.10199169921875e+03 1.31159293651581e+00 1065 
5.54322167968750e+03 1.00394765625000e+04 1.10993838310242e+00 1066 
2.44791040039062e+03 4.99931103515625e+03 1.57941114902496e+00 1067 
4.92755126953125e+03 5.62692285156250e+03 1.75408351421356e+00 1068 
4.08364428710938e+03 5.86962792968750e+03 1.64479160308838e+00 1069 
8.96335815429688e+02 8.56090136718750e+03 2.05144286155701e+00 1070 
5.26488476562500e+03 8.57584082031250e+03 1.88786196708679e+00 1071 
3.17142608642578e+02 1.29672167968750e+04 2.21277999877930e+00 1072 
6.40452026367188e+02 6.09522070312500e+03 1.83712327480316e+00 1073 
6.13504687500000e+03 8.04813867187500e+03 2.32534384727478e+00 1074 
3.88278417968750e+03 8.68002539062500e+03 2.07562327384949e+00 1075 
2.44127856445312e+03 8.73335937500000e+03 1.89368331432343e+00 1076 
1.47947326660156e+02 8.86752343750000e+03 2.16927385330200e+00 1077 
1.91919030761719e+03 9.32794042968750e+03 2.22628927230835e+00 1078 
3.03559594726562e+03 1.01887734375000e+04 2.21727776527405e+00 1079 
4.61362402343750e+03 1.09463476562500e+04 2.30690097808838e+00 1080 
1.49932296752930e+02 1.11972988281250e+04 1.91781783103943e+00 1081 
5.88964794921875e+03 1.17637695312500e+04 2.21845960617065e+00 1082 
3.81939794921875e+03 1.28977119140625e+04 2.06051707267761e+00 1083 
1.53275000000000e+03 7.86991552734375e+03 3.72149395942688e+00 1084 
1.59471093750000e+03 1.22575664062500e+04 3.02296185493469e+00 1085 
1.61665307617188e+03 1.22735605468750e+04 3.09375143051147e+00 1086 
4.88679052734375e+03 9.33059960937500e+03 6.83121109008789e+00 1087 
4.69248580932617e+01 8.02232470703125e+03 4.19942903518677e+00 1088 
4.11064062500000e+03 5.80773095703125e+03 5.23163890838623e+00 1089 
3.04862329101562e+03 5.87277832031250e+03 3.78176403045654e+00 1090 
5.85692382812500e+03 1.20387187500000e+04 6.56620693206787e+00 1091 
3.44154003906250e+03 5.52834228515625e+03 2.15119409561157e+00 1092 
4.66091943359375e+03 1.08274941406250e+04 2.26128029823303e+00 1093 
4.49087615966797e+02 1.15777910156250e+04 2.47989368438721e+00 1094 
5.72136291503906e+02 6.09741162109375e+03 2.44131064414978e+00 1095 
2.90002044677734e+02 8.17189306640625e+03 1.90268599987030e+00 1096 
4.70973730468750e+03 8.70800195312500e+03 1.85438966751099e+00 1097 
2.15518334960938e+03 8.97750976562500e+03 2.36982393264771e+00 1098 
3.63940185546875e+03 9.39230078125000e+03 2.19146394729614e+00 1099 
4.55529663085938e+02 1.03768652343750e+04 2.18848037719727e+00 1100 
4.23772544860840e+01 1.06713447265625e+04 2.44153499603271e+00 1101 
4.43265747070312e+02 1.19620722656250e+04 2.58219552040100e+00 1102 
1.51817333984375e+03 9.69244335937500e+03 3.06741237640381e+00 1103 
2.70825170898438e+03 1.22623359375000e+04 3.05383276939392e+00 1104 
5.22592480468750e+03 8.95793261718750e+03 2.56052207946777e+00 1105 
4.13245458984375e+03 9.82239648437500e+03 1.86698627471924e+00 1106 
2.45066723632812e+03 1.02807900390625e+04 2.94894218444824e+00 1107 
4.61762207031250e+03 1.09353271484375e+04 2.36609768867493e+00 1108 
4.57397766113281e+02 1.15558681640625e+04 2.46290397644043e+00 1109 
6.47105041503906e+02 1.18695361328125e+04 1.93131661415100e+00 1110 
1.45203479003906e+03 1.19175283203125e+04 2.48396897315979e+00 1111 
9.14930648803711e+01 1.23387617187500e+04 2.81095385551453e+00 1112 
1.90887048339844e+03 1.28119228515625e+04 2.82674646377563e+00 1113 
6.00119091796875e+03 5.89080957031250e+03 3.56967043876648e+00 1114 
4.89984228515625e+03 9.98480273437500e+03 3.29806756973267e+00 1115 
4.36647705078125e+02 1.04180488281250e+04 2.93288493156433e+00 1116 
1.44884338378906e+03 1.17878984375000e+04 2.97246527671814e+00 1117 
1.18616981506348e+02 1.23463476562500e+04 3.06386137008667e+00 1118 
1.02942114257812e+03 9.84460742187500e+03 3.38237452507019e+00 1119 
5.09550585937500e+03 7.64612744140625e+03 5.44585943222046e+00 1120 
6.02516113281250e+03 8.50974414062500e+03 4.97935962677002e+00 1121 
2.02306787109375e+03 6.09383056640625e+03 6.64611959457397e+00 1122 
5.88512304687500e+03 8.53734960937500e+03 6.22218227386475e+00 1123 
1.53292907714844e+03 9.67640332031250e+03 6.41018199920654e+00 1124 
3.11600317382812e+03 1.15511699218750e+04 4.19888734817505e+00 1125 
5.30819287109375e+03 1.23774208984375e+04 6.63674592971802e+00 1126 
5.09453417968750e+03 9.48059082031250e+03 1.17348327636719e+01 1127 
5.07032226562500e+03 9.54928320312500e+03 9.91180324554443e+00 1128 
5.90748779296875e+03 1.03056416015625e+04 1.18765525817871e+01 1129 
2.61839941406250e+03 1.11881123046875e+04 1.15654153823853e+01 1130 
1.49739904785156e+03 1.08699843750000e+04 1.54732666015625e+01 1131 
8.95714416503906e+02 1.44901901245117e+02 1.00675177574158e+00 1132 
5.27147021484375e+03 1.23991540527344e+03 1.22573828697205e+00 1133 
5.94801464843750e+03 1.69882885742188e+03 1.06727039813995e+00 1134 
5.89714794921875e+03 1.91815161132812e+03 9.06226515769958e-01 1135 
6.00129541015625e+03 4.92400390625000e+03 1.12473499774933e+00 1136 
4.01112036132812e+03 5.73610156250000e+03 1.10187137126923e+00 1137 
2.24959976196289e+02 6.81051367187500e+03 1.01580238342285e+00 1138 
5.90817382812500e+03 7.39373095703125e+03 1.22906351089478e+00 1139 
2.00594177246094e+03 8.08927929687500e+03 1.17373812198639e+00 1140 
2.29963354492188e+03 8.50557324218750e+03 1.27309060096741e+00 1141 
2.16656225585938e+03 8.87621093750000e+03 1.19950103759766e+00 1142 
4.78198730468750e+03 8.98906152343750e+03 9.56342458724976e-01 1143 
6.24668750000000e+03 9.78697167968750e+03 1.39358234405518e+00 1144 
4.34194921875000e+03 9.81849316406250e+03 1.21052670478821e+00 1145 
2.01627355957031e+03 1.00391582031250e+04 1.31583011150360e+00 1146 
9.41836242675781e+01 1.01954160156250e+04 1.25018751621246e+00 1147 
4.22252929687500e+03 1.15271601562500e+04 1.03387904167175e+00 1148 
4.27177441406250e+03 1.15343427734375e+04 1.20154583454132e+00 1149 
9.78901123046875e+02 1.16056240234375e+04 1.08724737167358e+00 1150 
3.04765039062500e+03 1.18422158203125e+04 1.09703385829926e+00 1151 
4.65344433593750e+03 1.20857968750000e+04 1.27697765827179e+00 1152 
1.00323504638672e+03 1.22474560546875e+04 1.38479876518250e+00 1153 
5.57329785156250e+03 1.26460810546875e+04 1.01906716823578e+00 1154 
6.15497509765625e+03 4.81401416015625e+03 1.77369427680969e+00 1155 
1.62622108459473e+01 5.12161767578125e+03 1.44131135940552e+00 1156 
3.90370385742188e+03 1.04903457031250e+04 1.70185899734497e+00 1157 
3.95890063476562e+03 1.05494042968750e+04 1.58619725704193e+00 1158 
3.83456958007812e+03 1.28980605468750e+04 1.63177978992462e+00 1159 
2.87199951171875e+03 3.14661773681641e+02 1.16327130794525e+00 1160 
2.72982470703125e+03 3.00860522460938e+03 1.15277194976807e+00 1161 
4.04848559570312e+03 4.09348754882812e+03 1.37236952781677e+00 1162 
1.09295910644531e+03 7.88214062500000e+03 9.46886777877808e-01 1163 
4.06052514648438e+03 8.66368359375000e+03 1.24948287010193e+00 1164 
2.22828222656250e+03 8.71060546875000e+03 1.15184247493744e+00 1165 
1.61673767089844e+03 8.87210058593750e+03 1.05856132507324e+00 1166 
4.14587173461914e+01 9.06288183593750e+03 1.08018171787262e+00 1167 
2.04184594726562e+03 9.24315429687500e+03 1.17992436885834e+00 1168 
1.18052026367188e+03 9.89970898437500e+03 1.40640020370483e+00 1169 
5.49125781250000e+03 9.89957031250000e+03 1.04532611370087e+00 1170 
1.17689636230469e+03 9.90770605468750e+03 1.15112137794495e+00 1171 
3.45765405273438e+03 1.06830419921875e+04 9.39044833183289e-01 1172 
5.95637023925781e+02 1.09385966796875e+04 1.17518937587738e+00 1173 
6.14254150390625e+02 1.09388164062500e+04 1.11306643486023e+00 1174 
2.15291699218750e+03 1.09468417968750e+04 1.02981233596802e+00 1175 
1.19242443847656e+03 1.11567041015625e+04 9.80302631855011e-01 1176 
6.46285742187500e+03 1.26833242187500e+04 1.01649808883667e+00 1178 
8.77129638671875e+02 1.26999238281250e+04 1.15295219421387e+00 1179 
1.98540478515625e+03 1.06912609863281e+03 1.62664735317230e+00 1180 
1.97110058593750e+03 3.63936572265625e+03 1.50227379798889e+00 1181 
3.75675463867188e+03 5.25050830078125e+03 1.67483127117157e+00 1182 
6.04033398437500e+03 6.24997558593750e+03 1.57999420166016e+00 1183 
4.54705957031250e+03 7.43818457031250e+03 1.66861224174500e+00 1184 
3.44451440429688e+03 7.99016210937500e+03 1.53013944625854e+00 1185 
6.14997314453125e+03 8.24896484375000e+03 1.46791720390320e+00 1186 
2.43323266601562e+03 1.03642578125000e+04 1.66392660140991e+00 1187 
2.51615386962891e+02 1.05114902343750e+04 1.78159129619598e+00 1188 
5.23299755859375e+03 1.05663203125000e+04 1.61050760746002e+00 1189 
4.44540466308594e+02 1.13133730468750e+04 1.64809012413025e+00 1190 
4.21300097656250e+03 1.15230830078125e+04 1.61933815479279e+00 1191 
4.21204736328125e+03 1.15299531250000e+04 1.62290918827057e+00 1192 
2.64332177734375e+03 1.20858427734375e+04 1.58995163440704e+00 1193 
6.34124560546875e+03 1.23096562500000e+04 1.49469256401062e+00 1194 
2.70920190429688e+03 1.91623718261719e+02 1.14939713478088e+00 1195 
7.71978027343750e+02 4.90483551025391e+02 1.06027770042419e+00 1196 
3.85387915039062e+03 2.39412646484375e+03 9.37859773635864e-01 1197 
4.92315234375000e+03 2.93028686523438e+03 1.07235944271088e+00 1198 
2.98396679687500e+03 3.62892626953125e+03 1.23545241355896e+00 1199 
6.01415136718750e+03 4.92684179687500e+03 1.11697745323181e+00 1200 
5.57240966796875e+03 6.63952148437500e+03 1.18526470661163e+00 1201 
6.28100732421875e+03 6.80761376953125e+03 1.30209171772003e+00 1202 
9.12366699218750e+02 8.47044042968750e+03 1.04541492462158e+00 1203 
2.33850122070312e+03 9.08452539062500e+03 1.05119824409485e+00 1204 
1.60706896972656e+03 9.52197363281250e+03 1.25638186931610e+00 1205 
3.62151806640625e+03 1.02185966796875e+04 1.16070377826691e+00 1206 
6.51104882812500e+03 1.13170312500000e+04 1.30604422092438e+00 1207 
2.08225952148438e+03 1.13575908203125e+04 1.12433993816376e+00 1208 
1.71104565429688e+03 1.18607451171875e+04 1.38954675197601e+00 1209 
3.27919873046875e+03 1.22511816406250e+04 1.03531920909882e+00 1210 
