ply
format ascii 1.0
element vertex 703
property double x
property double y
property double size
property short id
end_header
7.72520068359375e+03 1.66084289550781e+03 1.47950923442841e+00 198 
5.50924316406250e+03 7.23147119140625e+03 1.26474320888519e+00 200 
3.13945507812500e+03 3.62462402343750e+03 1.93208515644073e+00 202 
3.03751293945312e+03 3.60247363281250e+03 1.04130947589874e+00 203 
4.05639575195312e+03 1.31824588775635e+01 1.15713703632355e+00 206 
6.07106250000000e+03 8.29806542968750e+03 1.55434632301331e+00 207 
4.75006396484375e+03 7.20950488281250e+03 1.77304589748383e+00 208 
6.55094433593750e+03 6.34777148437500e+03 1.44211649894714e+00 210 
6.91501806640625e+03 4.46414062500000e+03 1.61860358715057e+00 212 
3.44802319335938e+03 3.55230761718750e+03 1.36630475521088e+00 213 
6.25212792968750e+03 3.29639892578125e+03 1.46745324134827e+00 214 
3.52408154296875e+03 1.99138049316406e+03 1.50918173789978e+00 215 
7.51143115234375e+03 2.50040145874023e+02 1.36419892311096e+00 217 
5.36666601562500e+03 3.09644335937500e+03 1.13445496559143e+00 218 
4.22009863281250e+03 1.84845874023438e+03 1.31306302547455e+00 219 
3.05840917968750e+03 1.01075598144531e+03 1.16193473339081e+00 220 
4.11132617187500e+03 6.51205517578125e+03 1.48100090026855e+00 223 
6.08434228515625e+03 4.00983300781250e+03 1.54087388515472e+00 226 
4.50949560546875e+03 2.36238891601562e+03 1.61612820625305e+00 227 
8.16439648437500e+03 4.39073046875000e+03 2.99116587638855e+00 228 
8.20383496093750e+03 4.37657617187500e+03 3.14414811134338e+00 229 
6.98372265625000e+03 3.45544140625000e+03 2.89791750907898e+00 230 
4.54142626953125e+03 1.72271270751953e+02 3.15343832969666e+00 231 
7.11180810546875e+03 1.98042431640625e+03 6.91843700408936e+00 232 
8.39051269531250e+03 7.26775488281250e+03 5.37232875823975e+00 233 
2.90473999023438e+03 5.43849853515625e+02 4.20070552825928e+00 234 
7.34815234375000e+03 1.33044445800781e+03 6.78875160217285e+00 235 
2.65571093750000e+03 8.03998681640625e+03 3.97644567489624e+00 236 
6.13781054687500e+03 5.47486035156250e+03 3.88125538825989e+00 237 
7.16330957031250e+03 8.22551953125000e+03 5.33882665634155e+00 239 
2.93826513671875e+03 5.01839257812500e+03 4.71159648895264e+00 240 
5.42457763671875e+03 2.21227465820312e+03 3.88103842735291e+00 241 
4.76635791015625e+03 9.97442810058594e+02 3.83973765373230e+00 242 
7.77581298828125e+03 9.66998046875000e+02 5.40319824218750e+00 243 
4.69246875000000e+03 1.09947113037109e+02 4.47163295745850e+00 244 
7.56403710937500e+03 4.39263183593750e+03 7.17196893692017e+00 245 
8.39723632812500e+03 7.25352148437500e+03 5.28311634063721e+00 246 
6.36596875000000e+03 4.96965673828125e+03 5.61865997314453e+00 247 
6.38082568359375e+03 4.94097753906250e+03 3.77303242683411e+00 248 
5.48225585937500e+03 2.00822167968750e+03 4.40647315979004e+00 249 
8.34632031250000e+03 1.37782006835938e+03 4.72468900680542e+00 250 
7.98496044921875e+03 8.30376562500000e+03 6.64120626449585e+00 251 
5.09067480468750e+03 2.46160473632812e+03 4.24216461181641e+00 252 
5.03835058593750e+03 5.86027880859375e+03 1.06543898582458e+00 253 
7.05414501953125e+03 4.81615283203125e+03 1.12596356868744e+00 255 
6.12356689453125e+03 3.92136425781250e+03 1.50856661796570e+00 256 
5.47152783203125e+03 3.15299340820312e+03 1.33915019035339e+00 257 
6.39855761718750e+03 2.93383862304688e+03 1.19673740863800e+00 258 
8.51224707031250e+03 2.86354150390625e+03 1.15449619293213e+00 259 
7.17382080078125e+03 7.20633398437500e+03 1.66922307014465e+00 262 
5.35636083984375e+03 4.29858691406250e+03 1.57598471641541e+00 263 
6.33035791015625e+03 3.29306542968750e+03 1.61408519744873e+00 264 
7.47956738281250e+03 2.96537036132812e+03 1.78429925441742e+00 265 
3.52977758789062e+03 1.99371789550781e+03 1.68125879764557e+00 266 
3.66435815429688e+03 1.71950292968750e+03 1.67507982254028e+00 267 
5.93145654296875e+03 9.98741271972656e+02 1.60368347167969e+00 268 
7.39077392578125e+03 2.41861984252930e+02 1.50749075412750e+00 269 
7.04635791015625e+03 4.81297949218750e+03 1.16053712368011e+00 272 
3.10028710937500e+03 1.49139123535156e+03 1.47396993637085e+00 273 
5.19471142578125e+03 7.29634960937500e+03 1.39406359195709e+00 275 
6.21836523437500e+03 6.77081152343750e+03 1.91395759582520e+00 276 
5.68586914062500e+03 4.57777050781250e+03 1.43176519870758e+00 277 
6.33500000000000e+03 3.28548608398438e+03 1.68756198883057e+00 278 
4.91583447265625e+03 2.92663061523438e+03 1.41471934318542e+00 279 
4.82076904296875e+03 3.64782714843750e+02 1.51742899417877e+00 281 
6.76668164062500e+03 6.02706250000000e+03 1.23117995262146e+00 283 
3.02059863281250e+03 2.92792309570312e+03 1.17687022686005e+00 285 
4.48867578125000e+03 2.67140502929688e+03 1.25409781932831e+00 286 
6.72756445312500e+03 4.04579638671875e+03 1.59001016616821e+00 287 
8.50335351562500e+03 2.87155932617188e+03 1.36960101127625e+00 288 
4.24364990234375e+03 2.29250708007812e+03 1.16031718254089e+00 289 
8.41645507812500e+03 7.17285791015625e+03 1.38133370876312e+00 290 
6.86679443359375e+03 6.32791748046875e+03 1.61827600002289e+00 291 
5.32199804687500e+03 5.61684033203125e+03 1.76404619216919e+00 292 
6.11791601562500e+03 3.96636328125000e+03 1.55374634265900e+00 293 
2.68321093750000e+03 2.10979223632812e+03 1.57314491271973e+00 295 
6.77064501953125e+03 1.08645520019531e+03 1.69228577613831e+00 296 
4.58199755859375e+03 8.02850097656250e+03 2.20608043670654e+00 297 
2.62633886718750e+03 7.47002783203125e+03 2.42603206634521e+00 298 
7.03456689453125e+03 7.48833691406250e+03 2.08329582214355e+00 299 
2.81792480468750e+03 6.95818066406250e+03 2.18960762023926e+00 300 
4.52781787109375e+03 6.35145849609375e+03 2.44556379318237e+00 301 
5.84157275390625e+03 5.34996826171875e+03 2.53926134109497e+00 302 
2.69532861328125e+03 4.05356274414062e+03 2.03918337821960e+00 303 
2.81462963867188e+03 2.61618896484375e+03 1.66247630119324e+00 304 
4.57504882812500e+03 1.89202624511719e+03 2.63757252693176e+00 305 
2.95933349609375e+03 9.06587158203125e+02 1.82559561729431e+00 307 
3.40107885742188e+03 2.19486755371094e+02 2.49401855468750e+00 308 
4.37426904296875e+03 8.10339941406250e+03 3.40018868446350e+00 309 
4.46884130859375e+03 4.77517187500000e+03 3.02842521667480e+00 310 
7.46763818359375e+03 4.76086474609375e+03 3.25447893142700e+00 311 
5.25929296875000e+03 4.41219091796875e+03 3.08825373649597e+00 312 
4.05572338867188e+03 4.05096142578125e+03 3.36538362503052e+00 313 
2.88216186523438e+03 5.69399169921875e+02 2.99307441711426e+00 314 
6.81111328125000e+03 8.05039990234375e+03 2.17020297050476e+00 315 
7.32387353515625e+03 6.96546777343750e+03 1.96984660625458e+00 317 
3.14978979492188e+03 4.80306494140625e+03 2.35109972953796e+00 318 
8.12456298828125e+03 3.45895117187500e+03 2.68469953536987e+00 319 
6.32891015625000e+03 3.08654296875000e+03 1.76663255691528e+00 320 
8.71530566406250e+03 2.18864575195312e+03 2.42995333671570e+00 321 
8.83591503906250e+03 4.55445739746094e+02 1.93966674804688e+00 322 
6.37777392578125e+03 4.89949365234375e+03 3.10051345825195e+00 323 
3.48697143554688e+03 6.37122070312500e+03 5.65476417541504e+00 324 
8.44867187500000e+03 5.09790234375000e+03 6.08993721008301e+00 325 
4.75081591796875e+03 2.85482696533203e+02 6.75690031051636e+00 326 
6.68425732421875e+03 3.28556610107422e+02 6.66881513595581e+00 327 
7.65648388671875e+03 2.12204421997070e+02 6.82095670700073e+00 328 
4.69867041015625e+03 2.56020080566406e+02 8.49075126647949e+00 331 
7.54649462890625e+03 3.61999603271484e+02 7.54595184326172e+00 332 
4.13527050781250e+03 1.58432104492188e+03 6.57879447937012e+00 333 
4.04839160156250e+03 1.69067321777344e+03 1.26914119720459e+01 335 
7.14187207031250e+03 6.18052001953125e+03 9.82432556152344e+00 336 
5.89497705078125e+03 8.09689086914062e+02 8.75868511199951e+00 337 
6.82288378906250e+03 1.14239587402344e+03 8.89709663391113e+00 338 
5.94425537109375e+03 1.02547619628906e+03 1.07222557067871e+01 339 
3.74893896484375e+03 5.71139306640625e+03 8.43258857727051e+00 340 
8.56358691406250e+03 1.62096264648438e+03 9.65637874603271e+00 341 
5.76222753906250e+03 1.73592895507812e+03 2.51510753631592e+01 342 
6.51755468750000e+03 7.32842138671875e+03 1.79160461425781e+01 343 
5.48986572265625e+03 1.64136584472656e+03 1.54260177612305e+01 344 
6.76807666015625e+03 2.99508178710938e+03 3.18406295776367e+00 345 
6.20668701171875e+03 9.27774475097656e+02 3.15927839279175e+00 346 
6.82037402343750e+03 8.06421972656250e+03 2.36469006538391e+00 348 
8.04859277343750e+03 8.09317187500000e+03 2.08692049980164e+00 349 
6.30755859375000e+03 7.15783691406250e+03 1.91088247299194e+00 350 
5.23884326171875e+03 5.60522705078125e+03 2.64250302314758e+00 351 
4.22942431640625e+03 5.11487255859375e+03 2.25549006462097e+00 352 
3.97880224609375e+03 3.82495410156250e+03 2.59209990501404e+00 353 
8.58011816406250e+03 2.93873193359375e+03 2.38971614837646e+00 354 
3.28789306640625e+03 1.90864172363281e+03 2.84312796592712e+00 356 
6.19449169921875e+03 9.28234863281250e+02 1.78350424766541e+00 357 
3.99697021484375e+03 5.60397521972656e+02 2.29236149787903e+00 358 
4.68833544921875e+03 1.23685874938965e+02 2.08259344100952e+00 359 
3.49116162109375e+03 4.73343066406250e+03 3.23684334754944e+00 361 
5.37969873046875e+03 4.20003710937500e+03 3.17241787910461e+00 362 
3.98161059570312e+03 3.81264721679688e+03 2.88811540603638e+00 363 
8.68904296875000e+03 2.08152954101562e+03 2.93247413635254e+00 364 
7.79430664062500e+03 8.43003222656250e+03 1.86552596092224e+00 365 
6.83977929687500e+03 8.11076513671875e+03 2.14175295829773e+00 366 
2.81027758789062e+03 6.97730810546875e+03 2.50922799110413e+00 367 
2.54923046875000e+03 4.47857763671875e+03 2.13280558586121e+00 368 
8.21626855468750e+03 4.37063085937500e+03 2.44174551963806e+00 369 
7.06694677734375e+03 3.23420556640625e+03 1.82978165149689e+00 370 
8.60969628906250e+03 2.98861352539062e+03 2.49072289466858e+00 371 
3.94440844726562e+03 9.51221008300781e+02 2.56288361549377e+00 372 
4.55701269531250e+03 1.83077697753906e+02 2.86838030815125e+00 373 
2.60388989257812e+03 6.32310107421875e+03 2.78096532821655e+00 375 
5.16713330078125e+03 6.03043261718750e+03 1.97307181358337e+00 376 
5.70111718750000e+03 5.88117822265625e+03 1.61178803443909e+00 377 
3.16039990234375e+03 4.80542968750000e+03 2.08513021469116e+00 378 
4.95365087890625e+03 4.33370166015625e+03 1.88946509361267e+00 379 
5.75295898437500e+03 4.17075244140625e+03 1.78906500339508e+00 380 
8.65202246093750e+03 3.05875000000000e+03 2.45777082443237e+00 382 
8.58604589843750e+03 2.94858935546875e+03 2.47517156600952e+00 383 
5.96338330078125e+03 2.61307861328125e+03 2.31781530380249e+00 384 
7.48755078125000e+03 1.84255102539062e+03 2.47895574569702e+00 385 
3.39306054687500e+03 2.10653274536133e+02 2.59117460250854e+00 386 
5.68371582031250e+02 1.17048254394531e+03 1.64608287811279e+00 387 
5.45385437011719e+02 6.60021044921875e+03 1.58655726909637e+00 388 
5.59731201171875e+03 6.14131591796875e+03 1.65055119991302e+00 389 
5.49684521484375e+03 5.29363281250000e+03 1.46925723552704e+00 390 
4.46244238281250e+03 4.79143164062500e+03 1.57626914978027e+00 391 
3.51672534179688e+03 3.44865429687500e+03 1.55500686168671e+00 392 
2.27195043945312e+03 1.76128930664062e+03 1.54691863059998e+00 393 
2.12805981445312e+03 1.60080773925781e+03 1.59935986995697e+00 394 
5.34283886718750e+03 8.14093652343750e+03 1.11044800281525e+00 395 
4.11247314453125e+03 6.50911035156250e+03 1.15252542495728e+00 396 
7.14518981933594e+02 6.69564355468750e+03 1.33943963050842e+00 397 
2.04529211425781e+03 6.53860498046875e+03 1.72488272190094e+00 398 
1.71783862304688e+03 7.56990527343750e+03 1.27496123313904e+00 399 
3.60515307617188e+03 7.52346875000000e+03 1.18192458152771e+00 400 
7.81139990234375e+03 5.01209912109375e+03 2.42158699035645e+00 401 
2.56173364257812e+03 1.50817321777344e+03 1.99547815322876e+00 402 
1.80567297363281e+03 1.03008386230469e+03 2.47532582283020e+00 403 
4.76086230468750e+03 1.01853430175781e+03 2.82690334320068e+00 404 
1.35238510131836e+02 5.89303613281250e+03 1.98738706111908e+00 405 
6.14443115234375e+03 4.87579248046875e+03 2.89394831657410e+00 406 
8.68150781250000e+03 2.08223486328125e+03 2.40237760543823e+00 407 
2.60501611328125e+03 1.27936645507812e+03 1.53481268882751e+00 408 
3.71115356445312e+03 5.56275000000000e+03 3.00039553642273e+00 409 
2.57961254882812e+03 8.04443542480469e+02 2.92749667167664e+00 410 
7.58025439453125e+03 1.08047143554688e+03 2.86977720260620e+00 411 
1.19975854492188e+03 1.49783081054688e+03 2.06106638908386e+00 412 
4.66023144531250e+03 7.65130224609375e+03 3.13491177558899e+00 413 
1.18313156127930e+02 4.75767968750000e+03 3.23709535598755e+00 414 
4.16969947814941e+01 4.73684863281250e+03 3.11164259910583e+00 415 
6.44700012207031e+02 8.12313867187500e+03 1.66380834579468e+00 416 
4.73674267578125e+03 4.26623291015625e+03 1.37954592704773e+00 417 
5.46292138671875e+03 3.40158129882812e+03 1.62596476078033e+00 418 
4.02066436767578e+02 2.05645605468750e+03 1.58234405517578e+00 419 
4.12583154296875e+03 6.67506256103516e+01 1.21368873119354e+00 420 
1.52298843383789e+02 6.67267578125000e+03 1.66227364540100e+00 421 
1.93542651367188e+03 6.74694384765625e+03 1.50133979320526e+00 422 
1.63885406494141e+02 6.58512890625000e+03 1.63939177989960e+00 423 
2.08073413085938e+03 6.12945019531250e+03 1.53999662399292e+00 424 
1.63138317871094e+03 3.94881469726562e+03 1.57992136478424e+00 425 
1.18882739257812e+03 8.26007714843750e+03 1.17726039886475e+00 426 
3.87258154296875e+03 7.94786914062500e+03 1.36807394027710e+00 427 
1.15965905761719e+03 7.61368652343750e+03 1.22351253032684e+00 428 
3.47722216796875e+03 6.72133007812500e+03 1.70937979221344e+00 429 
5.92598242187500e+03 3.73147583007812e+03 1.30699408054352e+00 430 
2.24821069335938e+03 6.20258178710938e+02 1.30816876888275e+00 431 
8.19259082031250e+03 3.28901245117188e+02 1.26997506618500e+00 432 
5.97994531250000e+03 8.20637500000000e+03 1.58614504337311e+00 433 
5.05716766357422e+02 6.59079882812500e+03 1.20148456096649e+00 434 
2.09155517578125e+03 6.13653222656250e+03 1.34500038623810e+00 435 
2.67133837890625e+03 5.98723632812500e+03 1.49175250530243e+00 436 
1.99240551757812e+03 6.28345410156250e+03 2.80202436447144e+00 437 
7.19839782714844e+01 4.63221337890625e+03 3.69911766052246e+00 438 
1.91404675292969e+03 2.28845031738281e+02 3.65043544769287e+00 440 
8.65303417968750e+03 5.90901245117188e+02 4.04198884963989e+00 441 
8.79653222656250e+03 5.13624816894531e+02 4.03059291839600e+00 442 
7.18131542968750e+03 6.79310888671875e+03 5.12330150604248e+00 443 
6.87928100585938e+02 4.57417968750000e+03 5.84385442733765e+00 444 
7.71328564453125e+03 4.42279736328125e+03 3.77292037010193e+00 445 
4.54288183593750e+03 6.87520166015625e+03 6.35787010192871e+00 446 
1.26168273925781e+02 4.63145556640625e+03 3.59913325309753e+00 447 
1.69469421386719e+03 7.26637158203125e+03 1.09489476680756e+00 448 
4.80085058593750e+03 5.78881738281250e+03 1.39751279354095e+00 449 
7.63679541015625e+03 5.59586474609375e+03 1.01646018028259e+00 450 
3.53559423828125e+03 7.64072509765625e+03 1.31544935703278e+00 451 
1.83701000976562e+03 6.63776464843750e+03 1.54998600482941e+00 452 
9.45413757324219e+02 6.83969140625000e+03 1.02774107456207e+00 453 
2.89652807617188e+03 6.99578906250000e+03 1.66323173046112e+00 454 
5.36524267578125e+03 4.30714941406250e+03 1.49938058853149e+00 455 
9.52789672851562e+02 7.84052050781250e+03 1.70065438747406e+00 456 
9.52013793945312e+02 6.84064746093750e+03 1.66276347637177e+00 457 
7.96220117187500e+03 5.54657958984375e+03 1.06681466102600e+00 458 
6.26002441406250e+03 5.20201171875000e+03 1.72573554515839e+00 459 
2.34898779296875e+03 1.89050891113281e+03 1.48585486412048e+00 460 
7.26074804687500e+03 5.43691064453125e+03 1.21911180019379e+00 461 
3.51456201171875e+03 3.60510351562500e+03 1.04784071445465e+00 462 
5.96240869140625e+03 2.64457641601562e+03 1.21456038951874e+00 463 
2.01683502197266e+02 7.71949853515625e+03 1.37432324886322e+00 464 
2.86415380859375e+03 5.37459130859375e+03 1.59675407409668e+00 465 
5.78414428710938e+02 2.14664721679688e+03 1.65205860137939e+00 466 
4.95865478515625e+03 6.38263525390625e+03 2.58703017234802e+00 467 
7.95834521484375e+03 5.57134716796875e+03 1.96541917324066e+00 468 
8.69296777343750e+03 5.33632080078125e+03 2.65409946441650e+00 469 
1.51049694824219e+03 4.64607324218750e+03 1.93886721134186e+00 470 
4.00936181640625e+03 4.47819677734375e+03 1.94862389564514e+00 471 
3.16918237304688e+03 1.58052514648438e+03 1.97711920738220e+00 472 
7.57208593750000e+03 1.07102514648438e+03 2.90175390243530e+00 473 
7.89961181640625e+03 6.84841503906250e+03 3.14533710479736e+00 474 
2.00320007324219e+03 5.20287646484375e+03 3.23468232154846e+00 475 
7.47993310546875e+03 5.71444921875000e+03 1.76918280124664e+00 476 
2.11761547851562e+03 4.21965820312500e+03 1.97120583057404e+00 477 
1.16146826171875e+03 1.33189343261719e+03 2.10398340225220e+00 478 
1.55885168457031e+03 4.49240576171875e+03 3.74708366394043e+00 479 
8.50299218750000e+03 5.20896679687500e+03 6.55442190170288e+00 480 
3.29351293945312e+03 4.80730322265625e+03 3.54107689857483e+00 481 
7.82460595703125e+03 5.05777685546875e+03 2.19679965972900e+01 482 
8.06178808593750e+03 5.20061035156250e+03 2.23883399963379e+01 483 
3.63185241699219e+02 7.52134960937500e+03 2.88008904457092e+00 485 
5.18089599609375e+03 7.18226611328125e+03 2.18604183197021e+00 486 
7.70761291503906e+02 5.15347705078125e+03 2.51448106765747e+00 487 
3.96443090820312e+03 1.99304370117188e+03 2.80149531364441e+00 488 
8.19963671875000e+03 5.36443115234375e+02 2.24557638168335e+00 489 
4.92722167968750e+03 7.11947656250000e+03 2.97480440139771e+00 490 
3.68846588134766e+02 1.07831420898438e+03 2.96381425857544e+00 491 
1.16385095214844e+03 5.41944335937500e+02 3.52069497108459e+00 492 
8.67478222656250e+03 3.69471466064453e+02 3.25177907943726e+00 493 
8.48718652343750e+03 6.31121923828125e+03 2.38087081909180e+00 494 
3.66153540039062e+03 5.10204833984375e+03 2.25761222839355e+00 495 
6.26065283203125e+03 5.20166650390625e+03 1.87284100055695e+00 496 
6.89306591796875e+03 5.07738671875000e+03 2.23425579071045e+00 497 
4.03634716796875e+03 3.14198706054688e+03 1.88761734962463e+00 498 
2.72468457031250e+03 1.68608410644531e+03 2.77510714530945e+00 499 
6.56209326171875e+03 9.13105895996094e+02 2.37294006347656e+00 500 
5.79745703125000e+03 3.18483314514160e+01 1.95001769065857e+00 501 
5.01354052734375e+03 1.93891650390625e+03 2.00504350662231e+00 502 
7.73950683593750e+03 1.58875769042969e+03 1.43453276157379e+00 503 
4.77537841796875e+03 8.12508837890625e+03 1.30069506168365e+00 504 
1.69021057128906e+03 4.97316015625000e+03 1.21346211433411e+00 505 
2.25256689453125e+03 4.81697119140625e+03 1.25613522529602e+00 506 
4.08273852539062e+03 4.38028417968750e+03 1.25014066696167e+00 507 
7.48770690917969e+02 3.95807934570312e+03 1.18301057815552e+00 508 
7.00750000000000e+02 2.48997778320312e+03 1.02163326740265e+00 509 
1.60475561523438e+03 2.44999633789062e+03 1.00794100761414e+00 510 
3.07512084960938e+02 2.06066455078125e+03 1.25509572029114e+00 511 
4.33844238281250e+03 2.29897216796875e+03 1.29287314414978e+00 512 
8.28657226562500e+03 2.32528656005859e+02 1.62376618385315e+00 513 
7.54154882812500e+03 1.06961357421875e+04 1.37543106079102e+00 514 
6.10354052734375e+03 7.84656005859375e+03 1.54916572570801e+00 515 
9.32797851562500e+01 7.21700537109375e+03 1.54833567142487e+00 516 
1.55893029785156e+03 7.05851269531250e+03 1.56185066699982e+00 517 
4.73705566406250e+03 7.27006591796875e+03 1.82063698768616e+00 518 
5.35729150390625e+03 7.36244433593750e+03 1.33725523948669e+00 519 
2.72608862304688e+03 6.43736621093750e+03 1.79913628101349e+00 520 
2.26553588867188e+03 4.84743212890625e+03 1.79876637458801e+00 521 
2.32184204101562e+03 4.39794824218750e+03 1.26947009563446e+00 522 
1.92703588867188e+03 3.62916357421875e+03 1.68381631374359e+00 523 
9.72629760742188e+02 2.69803662109375e+03 1.53633856773376e+00 524 
2.26714770507812e+03 1.25834355468750e+04 1.69000232219696e+00 525 
1.34592077636719e+03 2.51871044921875e+03 1.57539165019989e+00 526 
1.34121435546875e+03 2.49937402343750e+03 1.33576691150665e+00 527 
2.34094055175781e+02 8.93412536621094e+02 1.55557763576508e+00 528 
6.68716064453125e+03 1.25772644042969e+03 1.18963229656219e+00 529 
6.08222412109375e+03 5.61539672851562e+02 1.71118676662445e+00 530 
4.77068408203125e+03 8.11035986328125e+03 1.32453799247742e+00 531 
1.88553491210938e+03 7.88827734375000e+03 1.10872030258179e+00 532 
4.14857604980469e+02 7.39579101562500e+03 1.30155444145203e+00 533 
2.20712255859375e+03 6.37414501953125e+03 1.31596505641937e+00 534 
5.31841552734375e+03 6.49816113281250e+03 1.17489945888519e+00 535 
5.24065820312500e+03 5.61497900390625e+03 1.11356735229492e+00 536 
7.53666406250000e+03 5.01695117187500e+03 1.09381556510925e+00 537 
2.41160232543945e+02 2.91017407226562e+03 1.24511539936066e+00 538 
1.16660766601562e+03 2.92857177734375e+03 1.24974012374878e+00 539 
3.05588647460938e+03 2.76506591796875e+03 1.09790885448456e+00 540 
5.67389208984375e+03 2.47680957031250e+03 9.80406820774078e-01 541 
1.34638891601562e+03 1.94795068359375e+03 9.66519653797150e-01 542 
1.83589965820312e+03 1.37322741699219e+03 1.23108649253845e+00 543 
3.60357666015625e+03 3.54147705078125e+02 1.22842717170715e+00 544 
7.73061621093750e+03 6.85996728515625e+03 1.58329498767853e+00 545 
7.17760498046875e+03 6.78274072265625e+03 1.41362082958221e+00 546 
3.72632495117188e+03 5.57619433593750e+03 1.72252535820007e+00 547 
2.52186157226562e+02 4.67715234375000e+03 1.54506206512451e+00 548 
1.15609008789062e+02 3.94186987304688e+03 1.90968799591064e+00 549 
1.26291198730469e+03 3.70046362304688e+03 1.75601291656494e+00 550 
7.06041687011719e+02 2.13837451171875e+03 1.44207775592804e+00 551 
3.82832568359375e+03 1.42867980957031e+03 1.64065599441528e+00 552 
7.62835302734375e+03 1.56108947753906e+03 1.68228268623352e+00 553 
1.55561755371094e+03 9.61558105468750e+02 2.31820321083069e+00 554 
8.19656054687500e+03 5.40670837402344e+02 1.84685587882996e+00 555 
1.90410095214844e+03 6.66498388671875e+03 1.32847011089325e+00 556 
1.05747204589844e+03 4.92268994140625e+03 1.10004174709320e+00 557 
2.53692602539062e+03 1.43067578125000e+03 3.33001613616943e+00 558 
1.99619824218750e+03 6.71052539062500e+03 2.07915019989014e+00 559 
8.49193457031250e+03 6.30702148437500e+03 2.02196121215820e+00 560 
1.30465502929688e+03 5.08289990234375e+03 2.03231930732727e+00 561 
2.68153295898438e+03 4.92477539062500e+03 1.94780969619751e+00 562 
3.50759204101562e+03 4.71158496093750e+03 2.10472178459167e+00 563 
4.95147119140625e+03 4.11278369140625e+03 2.19456028938293e+00 564 
6.88724609375000e+03 3.14718139648438e+03 2.71262168884277e+00 565 
5.58330078125000e+03 3.02419213867188e+03 1.90631520748138e+00 566 
6.68632958984375e+03 2.17380468750000e+03 1.80798435211182e+00 567 
8.18273583984375e+03 1.48176623535156e+03 2.39672470092773e+00 568 
5.79575097656250e+03 3.67686958312988e+01 2.01943731307983e+00 569 
2.15457595825195e+02 4.66548828125000e+03 3.06650352478027e+00 570 
7.47698974609375e+03 4.76500732421875e+03 3.15986251831055e+00 571 
1.62213293457031e+03 1.23197851562500e+03 2.77840590476990e+00 572 
7.06258496093750e+03 8.41671777343750e+03 1.82021784782410e+00 573 
4.88048437500000e+03 6.23962353515625e+03 2.72392368316650e+00 574 
8.59463928222656e+02 5.79414257812500e+03 2.43785953521729e+00 575 
7.95228613281250e+03 5.57229199218750e+03 2.26934957504272e+00 576 
2.61763085937500e+03 3.97390771484375e+03 3.08211088180542e+00 577 
3.92323950195312e+03 2.99488671875000e+03 2.64567351341248e+00 578 
1.20116455078125e+03 6.03940429687500e+02 1.60407960414886e+00 579 
3.08110058593750e+03 7.07549609375000e+03 2.02825546264648e+00 581 
3.60742871093750e+03 6.81024560546875e+03 2.32817029953003e+00 582 
4.54388525390625e+03 6.31952832031250e+03 2.46660733222961e+00 583 
6.77559265136719e+02 4.91738818359375e+03 2.62751984596252e+00 584 
1.16812841796875e+03 3.77319311523438e+03 2.73567628860474e+00 585 
3.57314025878906e+02 3.06048754882812e+03 2.05185794830322e+00 586 
1.92386877441406e+03 3.14797973632812e+03 2.40924811363220e+00 587 
4.60865087890625e+03 3.23911596679688e+03 1.68879735469818e+00 588 
6.08879003906250e+03 5.66965515136719e+02 2.05444693565369e+00 589 
1.09637426757812e+03 5.96835839843750e+03 3.18475341796875e+00 590 
3.02363232421875e+03 5.31077758789062e+02 9.39465403556824e-01 591 
7.80977832031250e+03 8.43734179687500e+03 1.52790701389313e+00 592 
7.03473876953125e+03 8.23155761718750e+03 1.67871284484863e+00 593 
2.37964257812500e+03 7.84852978515625e+03 1.38466632366180e+00 594 
9.30630432128906e+02 6.07622607421875e+03 1.62520325183868e+00 595 
5.86422265625000e+03 4.66737353515625e+03 1.48160433769226e+00 596 
1.35601913452148e+02 2.67934277343750e+03 1.36735653877258e+00 597 
6.94131738281250e+03 3.02325927734375e+03 1.48176240921021e+00 598 
6.23865380859375e+03 2.39348583984375e+03 1.55906724929810e+00 599 
3.11242456054688e+03 3.45928039550781e+01 1.69686377048492e+00 600 
3.34101531982422e+02 7.51942187500000e+03 1.40608108043671e+00 601 
7.77233056640625e+03 7.16583837890625e+03 1.26103830337524e+00 602 
1.57140426635742e+02 6.55375439453125e+03 9.90247189998627e-01 603 
1.25012939453125e+03 5.12369140625000e+03 1.16636013984680e+00 604 
7.98361914062500e+03 5.45096240234375e+03 1.29284632205963e+00 605 
7.04146826171875e+03 4.81090136718750e+03 1.28711903095245e+00 606 
6.78837402343750e+02 4.10795214843750e+03 1.29693269729614e+00 607 
2.46273559570312e+03 3.53577880859375e+03 1.01413464546204e+00 608 
5.08906201171875e+03 3.40414062500000e+03 1.29291987419128e+00 609 
5.16953735351562e+02 2.91236352539062e+03 1.41557931900024e+00 610 
4.60364257812500e+03 3.25022680664062e+03 1.01576852798462e+00 611 
3.20503320312500e+03 1.80154418945312e+03 1.21206438541412e+00 612 
7.86537548828125e+03 8.47598730468750e+03 1.63576042652130e+00 613 
7.88794921875000e+03 8.22759667968750e+03 1.34859883785248e+00 614 
1.89874865722656e+03 6.42001269531250e+03 1.59329545497894e+00 615 
9.31346740722656e+02 6.07081298828125e+03 1.75249624252319e+00 616 
1.15070922851562e+03 5.94955761718750e+03 1.75032234191895e+00 617 
2.67298095703125e+03 5.99107861328125e+03 1.72359979152679e+00 618 
1.91545007324219e+03 3.95736889648438e+03 1.30193161964417e+00 619 
4.72612695312500e+03 4.38836425781250e+03 1.67449223995209e+00 620 
1.92157543945312e+03 3.61974584960938e+03 1.61607134342194e+00 621 
3.98493865966797e+02 3.30426025390625e+03 1.78030991554260e+00 622 
1.42262524414062e+03 1.82172058105469e+03 1.83312034606934e+00 623 
4.77878613281250e+03 8.13351416015625e+03 1.00647854804993e+00 624 
3.12688012695312e+03 7.69889062500000e+03 1.43032908439636e+00 625 
7.03339160156250e+03 7.57081591796875e+03 1.37779235839844e+00 626 
8.32263867187500e+03 7.55809130859375e+03 1.53538322448730e+00 627 
4.14462451171875e+03 6.72085449218750e+03 1.15975451469421e+00 628 
5.12425390625000e+03 6.62119824218750e+03 1.26040565967560e+00 629 
4.25494189453125e+03 4.99397753906250e+03 1.38736116886139e+00 630 
1.04397331237793e+02 4.03803173828125e+03 1.06202137470245e+00 631 
5.09082617187500e+03 3.45685302734375e+03 1.00100648403168e+00 632 
2.64441131591797e+02 2.97534692382812e+03 1.23140835762024e+00 633 
5.67470556640625e+03 2.47290502929688e+03 1.11929953098297e+00 634 
8.57013366699219e+02 1.70125830078125e+03 1.44533658027649e+00 635 
2.83440185546875e+02 1.56159240722656e+03 1.16061031818390e+00 636 
7.43491162109375e+03 1.71925872802734e+02 1.20969820022583e+00 637 
9.56232910156250e+02 7.85092187500000e+03 1.56276190280914e+00 638 
6.83576513671875e+03 7.92083544921875e+03 1.46397328376770e+00 639 
4.73497851562500e+03 7.26157128906250e+03 1.72310352325439e+00 640 
1.46544006347656e+03 5.82238134765625e+03 1.47299623489380e+00 641 
1.81583117675781e+03 3.85396899414062e+03 1.58590722084045e+00 642 
4.60855517578125e+03 3.23901953125000e+03 1.56833600997925e+00 643 
1.88029016113281e+03 1.77524096679688e+03 1.43829643726349e+00 644 
6.40106884765625e+03 6.58655664062500e+03 3.15702939033508e+00 645 
2.60479687500000e+03 1.29318103027344e+03 3.14414596557617e+00 646 
9.13179382324219e+02 3.65220184326172e+01 3.31288027763367e+00 647 
3.05445947265625e+03 7.21523095703125e+03 3.64431619644165e+00 648 
3.80337841796875e+03 5.58003906250000e+03 4.97949934005737e+00 649 
8.69364062500000e+03 5.74131408691406e+02 3.98441195487976e+00 650 
2.85939501953125e+03 5.39390820312500e+03 5.09586620330811e+00 651 
6.54529541015625e+02 3.65064526367188e+03 4.78275871276855e+00 652 
8.07786279296875e+03 1.74422265625000e+03 3.70972657203674e+00 653 
5.44934692382812e+02 5.42959777832031e+02 4.11413002014160e+00 654 
7.43027636718750e+03 5.43289367675781e+02 4.09350633621216e+00 655 
1.11557165527344e+03 7.72566357421875e+03 3.34645032882690e+00 656 
1.88683154296875e+03 7.62670068359375e+03 4.02746534347534e+00 657 
1.74144836425781e+02 5.78413427734375e+03 4.33519124984741e+00 658 
1.60740585327148e+02 5.78180957031250e+03 4.52965641021729e+00 659 
2.61114086914062e+03 4.49009814453125e+03 4.04558181762695e+00 660 
7.40308642578125e+03 5.79977539062500e+02 4.08265686035156e+00 661 
4.81369677734375e+03 3.29705657958984e+02 6.62407970428467e+00 662 
7.73485791015625e+03 7.36829003906250e+03 5.42003250122070e+00 663 
1.96277404785156e+02 5.25055810546875e+03 4.78821897506714e+00 664 
8.17856982421875e+03 2.00589843750000e+03 4.87930727005005e+00 665 
4.11921972656250e+03 1.16322131347656e+03 4.56843328475952e+00 666 
6.05079101562500e+02 4.68685241699219e+02 5.28441095352173e+00 667 
7.49713720703125e+03 7.59296240234375e+03 4.93992614746094e+00 668 
7.53303417968750e+03 7.49761962890625e+03 4.80512523651123e+00 669 
4.47690002441406e+02 5.18501953125000e+03 5.61435461044312e+00 670 
7.34397607421875e+03 6.58726379394531e+02 4.26815748214722e+00 671 
2.13318017578125e+03 9.31980819702148e+01 3.78845143318176e+00 672 
7.52589208984375e+03 4.09699707031250e+03 3.72650313377380e+00 673 
1.97097546386719e+03 2.30201705932617e+02 4.22272443771362e+00 674 
6.66320263671875e+03 2.95849639892578e+02 4.34644651412964e+00 675 
7.26215625000000e+03 7.99131591796875e+03 6.16746568679810e+00 676 
6.70667333984375e+03 2.14723193359375e+03 1.32417130470276e+00 677 
9.62501159667969e+02 6.54952978515625e+03 1.10666799545288e+00 678 
2.08409790039062e+03 6.12890429687500e+03 1.30763638019562e+00 679 
3.44504492187500e+03 3.54794873046875e+03 1.31390225887299e+00 680 
4.60122802734375e+03 3.38681933593750e+03 1.30494844913483e+00 681 
3.79077856445312e+03 3.16576684570312e+03 1.10561716556549e+00 682 
2.47177050781250e+03 2.82009570312500e+03 9.74278271198273e-01 683 
7.22659118652344e+02 2.37945239257812e+03 1.29033410549164e+00 684 
1.78115979003906e+03 1.98372985839844e+03 1.04478776454926e+00 685 
1.47279980468750e+03 1.93620642089844e+03 1.10011243820190e+00 686 
7.01171691894531e+02 1.59153393554688e+03 1.13226187229156e+00 687 
9.81387817382812e+02 1.17007849121094e+03 1.28758823871613e+00 688 
1.35564331054688e+03 7.35076538085938e+02 1.17519295215607e+00 689 
4.05935229492188e+03 1.86631889343262e+01 1.45185184478760e+00 690 
1.29835949707031e+03 7.51590478515625e+03 1.62971699237823e+00 691 
6.55280859375000e+03 6.34266943359375e+03 1.52018415927887e+00 692 
7.61766113281250e+03 4.25097070312500e+03 1.29287767410278e+00 693 
6.20250244140625e+03 2.42768286132812e+03 1.58085846900940e+00 694 
2.03590954589844e+03 6.54075390625000e+03 1.20864415168762e+00 695 
1.88149670410156e+03 4.99368750000000e+03 1.22058224678040e+00 696 
1.61604418945312e+03 4.94626171875000e+03 1.06351792812347e+00 697 
5.64585986328125e+03 4.82543701171875e+03 1.16663932800293e+00 698 
2.76221752929688e+03 4.48543261718750e+03 9.76025164127350e-01 699 
3.28541235351562e+03 3.81356665039062e+03 1.29438281059265e+00 700 
5.01005712890625e+03 3.45051342773438e+03 1.00035631656647e+00 701 
4.02188842773438e+03 3.27551928710938e+03 1.55879199504852e+00 702 
2.63035919189453e+02 2.94753613281250e+03 1.13594841957092e+00 703 
2.35910302734375e+03 2.55350805664062e+03 1.37221026420593e+00 704 
8.57806054687500e+03 1.73386047363281e+03 1.09666597843170e+00 705 
6.07583593750000e+03 8.29957519531250e+03 1.36125218868256e+00 706 
8.36534863281250e+03 7.45831152343750e+03 1.68550717830658e+00 707 
1.11985839843750e+03 6.26238330078125e+03 1.66264808177948e+00 708 
4.36914453125000e+03 5.35327050781250e+03 1.73724246025085e+00 709 
1.27043603515625e+03 4.02717797851562e+03 1.59502184391022e+00 710 
7.93779235839844e+02 3.84390234375000e+03 1.46747577190399e+00 711 
6.90312207031250e+03 3.21135815429688e+03 1.23647093772888e+00 712 
1.54873059082031e+03 1.68884533691406e+03 1.37393116950989e+00 713 
6.73077880859375e+03 2.04232922363281e+03 1.53934907913208e+00 714 
2.82418774414062e+03 8.71052001953125e+02 9.12675440311432e-01 715 
1.37581506347656e+03 6.36247314453125e+03 1.00277400016785e+00 716 
5.51773730468750e+03 4.87355419921875e+03 1.30429518222809e+00 717 
1.85715100097656e+03 4.43432421875000e+03 1.29367160797119e+00 718 
6.74728454589844e+02 4.13795410156250e+03 1.37130224704742e+00 719 
2.65281787109375e+03 4.03260302734375e+03 1.24911069869995e+00 720 
6.13749316406250e+03 3.91631542968750e+03 1.21992957592010e+00 721 
3.47292602539062e+03 3.58853588867188e+03 1.29626238346100e+00 722 
2.50874853515625e+03 3.36009814453125e+03 1.13821959495544e+00 723 
5.00962255859375e+03 3.44440966796875e+03 1.03997421264648e+00 724 
2.91239770507812e+03 2.86703173828125e+03 1.27446103096008e+00 725 
1.28016552734375e+03 2.51068530273438e+03 1.27310073375702e+00 726 
4.47652880859375e+03 2.40297241210938e+03 1.34737420082092e+00 727 
2.91131079101562e+03 1.97832080078125e+03 9.64747965335846e-01 728 
2.83002593994141e+02 3.78311914062500e+03 1.41442501544952e+00 729 
2.34230346679688e+03 2.55678149414062e+03 1.35520792007446e+00 730 
2.25697485351562e+03 2.20878906250000e+03 1.03473377227783e+00 731 
3.13807324218750e+03 2.21531445312500e+03 1.14584469795227e+00 732 
3.21053100585938e+03 1.80195507812500e+03 1.23974156379700e+00 733 
1.90215075683594e+03 1.58215490722656e+03 9.90123629570007e-01 734 
6.01969140625000e+03 9.78671569824219e+02 1.33933341503143e+00 735 
6.80292285156250e+03 8.00072216796875e+03 1.45229208469391e+00 736 
8.39179296875000e+03 5.87822802734375e+03 1.61093139648438e+00 737 
6.16952490234375e+03 5.26310058593750e+03 1.52459037303925e+00 738 
3.53856982421875e+03 1.96729296875000e+03 1.65233719348907e+00 739 
4.86900830078125e+03 1.57311926269531e+03 1.69936871528625e+00 740 
4.24260400390625e+03 7.77012060546875e+03 2.45201134681702e+00 741 
1.89033166503906e+03 6.66641845703125e+03 2.13713812828064e+00 742 
7.24076562500000e+03 6.91577099609375e+03 2.04642200469971e+00 743 
3.85219409179688e+03 6.58569335937500e+03 2.06651377677917e+00 744 
1.91148547363281e+03 6.40527832031250e+03 2.10616827011108e+00 745 
9.40328369140625e+02 4.96434472656250e+03 2.26359915733337e+00 746 
1.43417724609375e+03 3.56733032226562e+03 2.32919931411743e+00 747 
1.93984472656250e+03 3.13118237304688e+03 2.42868447303772e+00 748 
6.00166894531250e+03 2.85797851562500e+03 2.50148367881775e+00 749 
9.83755554199219e+02 1.84380053710938e+03 2.41346311569214e+00 750 
1.13312145996094e+03 1.03759057617188e+03 2.56793522834778e+00 751 
7.59586474609375e+03 1.10524072265625e+03 2.15417504310608e+00 752 
9.01472839355469e+02 5.24538757324219e+02 2.13276886940002e+00 753 
5.59478515625000e+03 7.27522949218750e+03 2.59657406806946e+00 754 
5.94203564453125e+03 6.03292236328125e+03 3.90299463272095e+00 755 
3.48343237304688e+03 7.82635400390625e+03 2.51543641090393e+00 756 
5.23216857910156e+02 6.46788330078125e+03 2.05386304855347e+00 757 
1.94485034179688e+03 6.49890527343750e+03 2.28295183181763e+00 758 
4.95298046875000e+03 4.10310791015625e+03 2.56926798820496e+00 759 
2.56551367187500e+03 3.34543627929688e+03 1.98993337154388e+00 760 
7.70565332031250e+03 3.68943408203125e+03 2.13874006271362e+00 761 
3.69221313476562e+03 3.32190771484375e+03 1.95229637622833e+00 762 
1.93039697265625e+03 7.16048706054688e+02 2.25275349617004e+00 763 
4.49734570312500e+03 6.43824707031250e+03 2.87997412681580e+00 764 
6.10642480468750e+03 6.32315917968750e+03 2.59671163558960e+00 765 
5.41409072875977e+01 5.63123535156250e+03 3.07815814018250e+00 766 
8.68619042968750e+03 6.08954003906250e+03 3.10485386848450e+00 767 
8.76297167968750e+03 6.78415466308594e+02 6.29543447494507e+00 768 
8.71444238281250e+03 1.95424438476562e+02 6.16854476928711e+00 769 
1.83394799804688e+03 7.17336035156250e+03 4.13745069503784e+00 770 
8.47170333862305e+01 4.75938574218750e+03 4.95704030990601e+00 771 
6.18454467773438e+02 4.53096160888672e+02 4.16013097763062e+00 772 
7.37120996093750e+03 6.22673034667969e+02 4.06954002380371e+00 773 
1.60101562500000e+03 1.43671020507812e+03 4.67435121536255e+00 774 
2.97483001708984e+02 9.46255126953125e+02 4.09824466705322e+00 775 
1.14328637695312e+03 5.94223681640625e+03 6.78542566299438e+00 776 
7.47685928344727e+01 4.61709912109375e+03 6.70949316024780e+00 777 
3.31766552734375e+03 2.20258349609375e+03 2.33017992973328e+00 778 
5.45787500000000e+03 1.61048779296875e+03 9.44231128692627e+00 779 
5.76846069335938e+02 3.49881054687500e+03 8.75786209106445e+00 780 
8.49876367187500e+03 1.97061694335938e+03 7.93055868148804e+00 781 
5.92323120117188e+02 3.52620922851562e+03 8.28089714050293e+00 782 
6.33772412109375e+03 1.26065759277344e+03 9.77834415435791e+00 784 
8.62600390625000e+03 2.05255908203125e+03 3.12728643417358e+00 785 
2.05695092773438e+03 9.43177917480469e+02 3.40739440917969e+00 786 
8.02636621093750e+03 1.30877856445312e+03 3.28027939796448e+00 787 
5.00457244873047e+02 5.98737792968750e+02 2.95355081558228e+00 788 
6.03196923828125e+03 6.52261621093750e+03 2.62126231193542e+00 789 
4.58083056640625e+03 5.76291552734375e+03 1.94087016582489e+00 790 
1.23423901367188e+03 5.09620996093750e+03 2.03660345077515e+00 791 
6.21083300781250e+03 5.29896777343750e+03 2.07174086570740e+00 792 
2.54259838867188e+03 4.41595117187500e+03 2.02740073204041e+00 793 
5.95646667480469e+01 3.39518237304688e+03 2.80811405181885e+00 794 
1.90926757812500e+03 3.36353881835938e+03 2.60087871551514e+00 795 
2.92185089111328e+02 3.02854174804688e+03 2.48882722854614e+00 796 
2.07982104492188e+03 8.99017395019531e+02 1.85295736789703e+00 797 
6.14212060546875e+03 5.56029736328125e+03 2.18428730964661e+00 798 
1.46242028808594e+03 3.62043920898438e+03 2.63294792175293e+00 799 
1.23653234863281e+03 3.18572778320312e+03 1.91706442832947e+00 800 
1.93933666992188e+03 3.21751049804688e+03 2.38389801979065e+00 801 
7.31232519531250e+03 1.48059436035156e+03 2.52861762046814e+00 802 
7.03136621093750e+03 1.50424169921875e+03 2.51529288291931e+00 803 
1.21774938964844e+03 1.04189282226562e+03 1.90571057796478e+00 804 
2.34597579956055e+02 8.58082763671875e+02 1.85092508792877e+00 805 
4.11734649658203e+02 9.68766555786133e+01 2.15252304077148e+00 806 
3.77685327148438e+03 5.71298437500000e+03 3.46799898147583e+00 807 
5.27830566406250e+03 4.50267773437500e+03 3.45097804069519e+00 808 
4.53333203125000e+03 2.36433105468750e+03 3.49590802192688e+00 809 
9.72014953613281e+02 1.85037756347656e+03 3.19808316230774e+00 810 
9.02483581542969e+02 6.48861007690430e+01 3.44457912445068e+00 811 
8.53973046875000e+03 8.11707763671875e+03 2.48104000091553e+00 812 
3.48139862060547e+02 7.41277441406250e+03 2.72664594650269e+00 813 
4.26496777343750e+03 7.71501806640625e+03 2.27572989463806e+00 814 
2.64850292968750e+03 7.47933251953125e+03 2.58677697181702e+00 815 
2.38850415039062e+03 6.33519580078125e+03 1.99274003505707e+00 816 
1.42516174316406e+03 6.05314257812500e+03 2.76803445816040e+00 817 
8.37899511718750e+03 6.48511962890625e+03 1.99260628223419e+00 818 
3.83671655273438e+03 4.88033251953125e+03 2.32211256027222e+00 819 
2.60731420898438e+03 4.47119042968750e+03 2.94207453727722e+00 820 
1.63648693847656e+03 2.95787548828125e+03 1.70699512958527e+00 821 
8.70208007812500e+03 3.25538183593750e+03 2.95691680908203e+00 822 
4.13712109375000e+03 2.27435131835938e+03 1.64248883724213e+00 823 
3.42192871093750e+03 7.63910522460938e+02 1.77637994289398e+00 824 
1.07968505859375e+03 3.53013641357422e+02 2.41542673110962e+00 825 
1.65685302734375e+03 2.39935165405273e+02 1.95216536521912e+00 826 
1.39516204833984e+02 6.35592431640625e+03 3.04408383369446e+00 827 
2.98595581054688e+03 5.14035461425781e+02 1.83543324470520e+00 828 
5.77431982421875e+03 5.86306738281250e+03 1.25629556179047e+00 830 
3.57341625976562e+03 7.55109912109375e+03 1.31125628948212e+00 833 
1.15037609863281e+03 2.35879101562500e+03 1.89915740489960e+00 836 
9.59075134277344e+02 6.78533935546875e+03 1.90241241455078e+00 837 
1.85874938964844e+03 2.50984472656250e+03 1.60756576061249e+00 838 
1.46990673828125e+03 7.46913183593750e+03 3.85139608383179e+00 842 
6.09508251953125e+03 4.45687646484375e+03 3.16296434402466e+00 844 
5.44864208984375e+03 8.10082812500000e+03 1.17194366455078e+00 845 
4.29990039062500e+03 5.69981591796875e+03 1.06135046482086e+00 846 
4.98019531250000e+03 1.18468273925781e+03 2.39178776741028e+00 851 
4.67867822265625e+03 7.40686523437500e+03 3.92950325012207e+01 854 
1.65237194824219e+03 7.77213916015625e+03 1.35766875743866e+00 855 
3.33495434570312e+03 5.84246044921875e+03 2.13676571846008e+00 856 
1.61823730468750e+03 3.99874023437500e+03 2.17750024795532e+00 857 
1.89841198730469e+03 7.83092626953125e+03 9.51099514961243e-01 861 
5.87196289062500e+03 7.97037353515625e+03 1.28095030784607e+00 862 
4.02402709960938e+03 7.10240673828125e+03 1.24971234798431e+00 863 
5.36604052734375e+03 3.54312939453125e+03 1.20412373542786e+00 865 
3.06772070312500e+03 2.89042089843750e+03 1.08355402946472e+00 866 
3.80194488525391e+02 7.53464990234375e+03 1.04431200027466e+00 868 
9.80853942871094e+02 2.74051953125000e+03 1.26486349105835e+00 872 
1.30557067871094e+03 1.79079968261719e+03 1.21963620185852e+00 873 
4.81113281250000e+03 5.77179052734375e+03 1.19228208065033e+00 875 
2.62725903320312e+03 1.90586437988281e+03 1.93111455440521e+00 876 
4.66437744140625e+03 8.13166162109375e+03 1.16605842113495e+00 878 
6.19869677734375e+03 6.78477392578125e+03 1.39435994625092e+00 881 
7.15843200683594e+02 4.91383154296875e+03 1.10582768917084e+00 883 
8.22993652343750e+02 2.16287866210938e+03 3.60613250732422e+00 884 
2.31543212890625e+03 7.71398632812500e+03 2.36497664451599e+00 885 
2.16319653320312e+03 6.57188574218750e+03 1.69127905368805e+00 886 
2.24917285156250e+03 3.55120678710938e+03 2.51589560508728e+00 887 
1.20950891113281e+03 1.02987561035156e+03 1.81606256961823e+00 890 
1.98861181640625e+03 6.27797998046875e+03 2.60839772224426e+00 891 
5.24987939453125e+03 5.60903613281250e+03 2.63407874107361e+00 892 
4.18080371093750e+03 3.16060180664062e+03 1.55182635784149e+00 894 
5.72302246093750e+02 1.17370874023438e+03 2.21161961555481e+00 895 
5.78662451171875e+03 4.18864135742188e+01 3.29738283157349e+00 897 
3.89716625976562e+03 4.89199462890625e+03 2.84712243080139e+00 899 
1.27769860839844e+03 5.08264306640625e+03 1.39041495323181e+00 900 
1.70868347167969e+03 1.39577246093750e+03 1.58561670780182e+00 901 
8.68181457519531e+02 3.88448242187500e+03 1.37232661247253e+00 904 
2.82776831054688e+03 3.91226513671875e+03 1.19601213932037e+00 905 
1.77383020019531e+03 3.13717211914062e+03 1.07458770275116e+00 906 
9.49292053222656e+02 7.83691259765625e+03 1.77381014823914e+00 907 
5.51381250000000e+03 7.79622167968750e+03 1.38551712036133e+00 908 
2.61162597656250e+03 3.09564086914062e+03 1.40256273746490e+00 910 
5.73360156250000e+03 5.79980664062500e+03 1.31238603591919e+00 912 
7.48990356445312e+02 3.95019628906250e+03 1.21656680107117e+00 914 
3.01204907226562e+03 5.01922119140625e+03 1.67164003849030e+00 916 
5.87540820312500e+03 3.87915478515625e+03 1.69176721572876e+00 917 
2.16701196289062e+03 5.46946923828125e+03 5.47604942321777e+00 918 
1.63754028320312e+03 4.36226708984375e+03 1.24076128005981e+00 921 
3.02796411132812e+03 2.92382153320312e+03 1.19571018218994e+00 922 
9.60384948730469e+02 2.44700341796875e+03 1.17626893520355e+00 924 
3.29130798339844e+02 2.05505029296875e+03 1.42347300052643e+00 925 
1.63356933593750e+03 3.56123730468750e+03 1.61659598350525e+00 927 
3.52554016113281e+02 3.19416430664062e+03 1.12861371040344e+00 929 
5.57723437500000e+03 7.85484863281250e+03 1.42138433456421e+00 931 
2.21793029785156e+02 4.71458642578125e+03 1.25241470336914e+00 933 
5.88437548828125e+03 4.03857519531250e+03 1.72956287860870e+00 939 
5.20997607421875e+03 5.67229589843750e+03 2.69098305702209e+00 942 
5.55736425781250e+03 5.52788378906250e+03 2.29517698287964e+00 943 
1.31539135742188e+03 1.43765368652344e+03 1.68281149864197e+00 944 
1.05708117675781e+03 6.68500634765625e+03 2.35924196243286e+00 945 
8.20993347167969e+02 3.12115332031250e+03 3.58896851539612e+00 949 
1.81009960937500e+03 5.66704956054688e+02 5.26681470870972e+00 950 
2.85739648437500e+03 6.95624902343750e+03 2.79487667083740e+01 952 
5.09414154052734e+02 6.57450634765625e+03 2.02184844017029e+00 954 
2.11956347656250e+03 5.42349560546875e+03 2.80893707275391e+00 955 
2.12184643554688e+03 4.25460791015625e+03 2.13704514503479e+00 956 
2.55871166992188e+03 3.10937451171875e+03 2.91792154312134e+00 957 
5.98355273437500e+03 2.88783105468750e+03 2.47135448455811e+00 958 
1.85388854980469e+03 7.22737841796875e+03 3.03083729743958e+00 959 
2.16961547851562e+03 9.99642089843750e+02 3.11047697067261e+00 960 
5.23304504394531e+02 5.67744726562500e+03 2.99619269371033e+00 962 
3.32879541015625e+03 8.12046691894531e+02 3.22056174278259e+00 963 
1.29182763671875e+03 1.45007434082031e+03 1.18649625778198e+00 965 
7.86606250000000e+03 5.60686669921875e+03 1.65663969516754e+00 967 
4.14294403076172e+02 7.39950195312500e+03 1.13486278057098e+00 973 
8.18643164062500e+03 8.00868554687500e+03 2.59317636489868e+00 985 
7.42508300781250e+03 3.67874902343750e+03 1.28386998176575e+00 988 
4.48610644531250e+03 5.40659375000000e+03 1.37902402877808e+00 989 
7.40813623046875e+03 5.64096582031250e+03 1.69076251983643e+00 990 
7.10234960937500e+03 8.91861816406250e+03 1.69617044925690e+00 991 
6.79404101562500e+03 5.69212353515625e+03 9.35730099678040e-01 992 
3.59608154296875e+03 6.72625781250000e+03 1.24728047847748e+00 993 
5.99601171875000e+03 6.94700000000000e+03 9.75298166275024e-01 994 
2.88299340820312e+03 1.00765390625000e+04 1.26368737220764e+00 995 
6.54607226562500e+03 5.86738183593750e+03 1.61834204196930e+00 996 
8.43955371093750e+03 9.15495996093750e+03 2.34474849700928e+00 997 
3.20881201171875e+03 9.35118750000000e+03 1.74669969081879e+00 998 
8.62548437500000e+03 8.28996972656250e+03 2.87196326255798e+00 999 
4.78695263671875e+03 1.23485000000000e+04 3.02632212638855e+00 1000 
7.38375195312500e+03 5.65706494140625e+03 1.99738204479218e+00 1001 
6.90765283203125e+03 1.26290146484375e+04 2.26545548439026e+00 1002 
4.95563916015625e+03 5.33394189453125e+03 3.31470537185669e+00 1003 
3.70217504882812e+03 6.20870166015625e+03 3.31049752235413e+00 1004 
4.49944287109375e+03 5.20863232421875e+03 1.91648137569427e+00 1005 
3.64162524414062e+03 7.66695263671875e+03 1.37010407447815e+00 1006 
5.11585986328125e+03 7.94911035156250e+03 2.02384066581726e+00 1007 
3.08503515625000e+03 8.45031054687500e+03 1.75968098640442e+00 1008 
7.17828808593750e+03 1.19120908203125e+04 2.45019626617432e+00 1009 
4.33854492187500e+03 1.21622617187500e+04 2.46273064613342e+00 1010 
3.02152416992188e+03 5.98958740234375e+03 2.76683497428894e+00 1011 
5.32624121093750e+03 1.49474716186523e+02 1.17243182659149e+00 1012 
8.50948437500000e+03 1.16414179687500e+04 1.47757720947266e+00 1013 
6.69251074218750e+03 6.23476513671875e+03 1.39120256900787e+00 1014 
3.36534912109375e+03 8.33483703613281e+02 1.03416514396667e+00 1015 
