ply
format ascii 1.0
element vertex 96
property double x
property double y
property double z
property char id
end_header
-5.71854710578918e-01 1.32488131523132e+00 3.85650444030762e+00 0 
-8.67370307445526e-01 1.32757985591888e+00 3.87854790687561e+00 1 
6.06799066066742e-01 1.01779866218567e+00 3.78067755699158e+00 2 
-1.45612430572510e+00 1.32950294017792e+00 3.92386293411255e+00 3 
-1.74873495101929e+00 1.32860422134399e+00 3.94695305824280e+00 4 
1.81272886693478e-02 1.02629256248474e+00 3.81816530227661e+00 5 
-2.77636229991913e-01 1.02978193759918e+00 3.83815288543701e+00 6 
-5.73617756366730e-01 1.03281784057617e+00 3.85948467254639e+00 7 
-8.69685888290405e-01 1.03524589538574e+00 3.88189005851746e+00 8 
-1.16529047489166e+00 1.03691446781158e+00 3.90484571456909e+00 9 
-1.45994889736176e+00 1.03801822662354e+00 3.92823433876038e+00 10 
6.07461631298065e-01 7.24638819694519e-01 3.78291845321655e+00 11 
-2.04534935951233e+00 1.03823268413544e+00 3.97312426567078e+00 12 
3.13502371311188e-01 7.28576660156250e-01 3.80197811126709e+00 13 
1.80808845907450e-02 7.32113957405090e-01 3.82138228416443e+00 14 
-2.78442323207855e-01 7.35330879688263e-01 3.84133410453796e+00 15 
-5.75161814689636e-01 7.38230586051941e-01 3.86263251304626e+00 16 
-1.16822469234467e+00 7.42632687091827e-01 3.90868663787842e+00 17 
-1.46347701549530e+00 7.44140446186066e-01 3.93157696723938e+00 18 
-1.75725817680359e+00 7.45169997215271e-01 3.95433402061462e+00 19 
6.07549548149109e-01 4.30004030466080e-01 3.78589415550232e+00 20 
3.13283801078796e-01 4.33310925960541e-01 3.80515861511230e+00 21 
1.74798686057329e-02 4.36382263898849e-01 3.82460975646973e+00 22 
-2.79507339000702e-01 4.39238876104355e-01 3.84527015686035e+00 23 
-5.76791286468506e-01 4.41995799541473e-01 3.86622810363770e+00 24 
-8.73981893062592e-01 4.44390624761581e-01 3.88846182823181e+00 25 
-1.17073595523834e+00 4.46661680936813e-01 3.91121625900269e+00 26 
-1.46647059917450e+00 4.48579609394073e-01 3.93314290046692e+00 27 
-1.76064026355743e+00 4.50209051370621e-01 3.95610260963440e+00 28 
-2.05398559570312e+00 4.51730966567993e-01 3.97830319404602e+00 29 
6.06728494167328e-01 1.34503111243248e-01 3.78916358947754e+00 30 
3.12389403581619e-01 1.37099564075470e-01 3.80885601043701e+00 31 
1.63288041949272e-02 1.39715984463692e-01 3.82836937904358e+00 32 
-2.80884057283401e-01 1.42233043909073e-01 3.84870672225952e+00 33 
-5.78397095203400e-01 1.44803211092949e-01 3.87020134925842e+00 34 
-8.75880300998688e-01 1.47264435887337e-01 3.89160919189453e+00 35 
-1.17290997505188e+00 1.49702802300453e-01 3.91308283805847e+00 36 
-1.46894943714142e+00 1.52059704065323e-01 3.93536591529846e+00 37 
-1.76325905323029e+00 1.54266461730003e-01 3.95834517478943e+00 38 
-2.05684018135071e+00 1.56544923782349e-01 3.98069429397583e+00 39 
-2.05850601196289e+00 -1.39022901654243e-01 3.98341178894043e+00 40 
-1.76520669460297e+00 -1.41988754272461e-01 3.96100902557373e+00 41 
-1.47078537940979e+00 -1.44836008548737e-01 3.93807959556580e+00 42 
-1.17475700378418e+00 -1.47569254040718e-01 3.91570448875427e+00 43 
-8.77742707729340e-01 -1.50257036089897e-01 3.89407038688660e+00 44 
-5.80201983451843e-01 -1.52719914913177e-01 3.87333321571350e+00 45 
-2.82650589942932e-01 -1.55036687850952e-01 3.85260462760925e+00 46 
1.46291153505445e-02 -1.57239228487015e-01 3.83262014389038e+00 47 
3.10603052377701e-01 -1.59340023994446e-01 3.81286597251892e+00 48 
6.05136752128601e-01 -1.61370545625687e-01 3.79246401786804e+00 49 
-2.05954313278198e+00 -4.34082984924316e-01 3.98609590530396e+00 50 
-1.76630222797394e+00 -4.37693387269974e-01 3.96391344070435e+00 51 
-1.47207641601562e+00 -4.41153526306152e-01 3.94114065170288e+00 52 
-1.17623388767242e+00 -4.44276958703995e-01 3.91894268989563e+00 53 
-8.79419445991516e-01 -4.47239279747009e-01 3.89671182632446e+00 54 
-5.82057118415833e-01 -4.49677139520645e-01 3.87582707405090e+00 55 
-2.84746795892715e-01 -4.51808929443359e-01 3.85629487037659e+00 56 
1.23120285570621e-02 -4.53696578741074e-01 3.83679032325745e+00 57 
3.08044254779816e-01 -4.55235421657562e-01 3.81685400009155e+00 58 
6.02019190788269e-01 -4.56553369760513e-01 3.79615283012390e+00 59 
-2.05977725982666e+00 -7.28265166282654e-01 3.98908996582031e+00 60 
-1.76676285266876e+00 -7.32644259929657e-01 3.96698522567749e+00 61 
-1.47286272048950e+00 -7.36656427383423e-01 3.94429755210876e+00 62 
-1.17742776870728e+00 -7.40086078643799e-01 3.92151927947998e+00 63 
-8.80980014801025e-01 -7.43269979953766e-01 3.89951658248901e+00 64 
-5.84066212177277e-01 -7.45647192001343e-01 3.87856745719910e+00 65 
-2.87248104810715e-01 -7.47588574886322e-01 3.85890007019043e+00 66 
9.36967786401510e-03 -7.49079525470734e-01 3.84031724929810e+00 67 
3.04648160934448e-01 -7.50184834003448e-01 3.82072043418884e+00 68 
-2.05919408798218e+00 -1.02066946029663e+00 3.99188041687012e+00 69 
5.98225653171539e-01 -7.50723361968994e-01 3.79992151260376e+00 70 
-1.47301661968231e+00 -1.03049027919769e+00 3.94705557823181e+00 71 
-1.17810583114624e+00 -1.03423321247101e+00 3.92428588867188e+00 72 
-8.82328033447266e-01 -1.03758275508881e+00 3.90243434906006e+00 73 
-5.86070239543915e-01 -1.03994488716125e+00 3.88141489028931e+00 74 
-2.89999455213547e-01 -1.04169130325317e+00 3.86146283149719e+00 75 
5.85343642160296e-03 -1.04279386997223e+00 3.84267354011536e+00 76 
-1.76581048965454e+00 -1.31621670722961e+00 3.97233295440674e+00 77 
-1.47283470630646e+00 -1.32195985317230e+00 3.94986343383789e+00 78 
5.93490123748779e-01 -1.04313170909882e+00 3.80339956283569e+00 79 
-1.17868971824646e+00 -1.32613646984100e+00 3.92745304107666e+00 80 
-8.83500695228577e-01 -1.33010852336884e+00 3.90565419197083e+00 81 
-5.87815165519714e-01 -1.33206629753113e+00 3.88427972793579e+00 82 
-2.93012022972107e-01 -1.33348619937897e+00 3.86387348175049e+00 83 
1.79375836160034e-03 -1.33403682708740e+00 3.84444522857666e+00 84 
2.95473337173462e-01 -1.33440971374512e+00 3.82573103904724e+00 85 
-2.05007839202881e+00 7.46066153049469e-01 3.97595262527466e+00 86 
-8.71958613395691e-01 7.40674614906311e-01 3.88533306121826e+00 87 
-1.16224026679993e+00 1.32886636257172e+00 3.90090227127075e+00 88 
-2.76746213436127e-01 1.32198989391327e+00 3.83576941490173e+00 89 
1.78968645632267e-02 1.31803834438324e+00 3.81577110290527e+00 90 
3.12055945396423e-01 1.31378054618835e+00 3.79675364494324e+00 91 
5.87726414203644e-01 -1.33229637145996e+00 3.80569291114807e+00 92 
6.04402720928192e-01 1.30786991119385e+00 3.77599096298218e+00 93 
-2.05751085281372e+00 -1.31062245368958e+00 3.99382162094116e+00 94 
-2.04017400741577e+00 1.32850778102875e+00 3.96930766105652e+00 95 
