ply
format ascii 1.0
element vertex 96
property double x
property double y
property double z
property char id
end_header
-3.84084630012512e+00 2.25729286670685e-01 7.79688930511475e+00 0 
-3.84748363494873e+00 -3.49815517663956e-01 7.82025718688965e+00 1 
-3.23803830146790e+00 2.51863527297974e+00 7.71629953384399e+00 2 
-3.85394454002380e+00 -1.49658393859863e+00 7.86940097808838e+00 3 
-3.85353088378906e+00 -2.06657695770264e+00 7.89486169815063e+00 4 
-3.25755453109741e+00 1.37258577346802e+00 7.75048732757568e+00 5 
-3.26580548286438e+00 7.96700537204742e-01 7.76987409591675e+00 6 
-3.27312779426575e+00 2.20299795269966e-01 7.79184103012085e+00 7 
-3.27923035621643e+00 -3.56344103813171e-01 7.81586503982544e+00 8 
-3.28383326530457e+00 -9.32128548622131e-01 7.84096097946167e+00 9 
-3.28731560707092e+00 -1.50610709190369e+00 7.86693954467773e+00 10 
-2.66819787025452e+00 2.51796030998230e+00 7.70993566513062e+00 11 
-3.29044651985168e+00 -2.64634299278259e+00 7.91541719436646e+00 12 
-2.67734098434448e+00 1.94564437866211e+00 7.72765588760376e+00 13 
-2.68570399284363e+00 1.37046253681183e+00 7.74593400955200e+00 14 
-2.69343233108521e+00 7.93102085590363e-01 7.76519155502319e+00 15 
-2.70049667358398e+00 2.15269133448601e-01 7.78703975677490e+00 16 
-2.71178078651428e+00 -9.39903914928436e-01 7.83742523193359e+00 17 
-2.71607089042664e+00 -1.51500082015991e+00 7.86241149902344e+00 18 
-2.71942567825317e+00 -2.08723354339600e+00 7.88721895217896e+00 19 
-2.09546828269958e+00 2.51611089706421e+00 7.70490598678589e+00 20 
-2.10337996482849e+00 1.94318222999573e+00 7.72298097610474e+00 21 
-2.11083841323853e+00 1.36725151538849e+00 7.74130773544312e+00 22 
-2.11784434318542e+00 7.88940370082855e-01 7.76189804077148e+00 23 
-2.12464785575867e+00 2.10032567381859e-01 7.78304243087769e+00 24 
-2.13070034980774e+00 -3.68780791759491e-01 7.80665779113770e+00 25 
-2.13649010658264e+00 -9.46781277656555e-01 7.83130836486816e+00 26 
-2.14161610603333e+00 -1.52274882793427e+00 7.85440635681152e+00 27 
-2.14613199234009e+00 -2.09574604034424e+00 7.87960338592529e+00 28 
-2.15046072006226e+00 -2.66709232330322e+00 7.90337657928467e+00 29 
-1.52105164527893e+00 2.51247119903564e+00 7.70035552978516e+00 30 
-1.52756750583649e+00 1.93936717510223e+00 7.71923065185547e+00 31 
-1.53414154052734e+00 1.36293077468872e+00 7.73764467239380e+00 32 
-1.54050087928772e+00 7.84200668334961e-01 7.75757980346680e+00 33 
-1.54692351818085e+00 2.04810917377472e-01 7.77974462509155e+00 34 
-1.55313730239868e+00 -3.74515712261200e-01 7.80173873901367e+00 35 
-1.55930101871490e+00 -9.52965617179871e-01 7.82389020919800e+00 36 
-1.56526947021484e+00 -1.52954614162445e+00 7.84767627716064e+00 37 
-1.57090783119202e+00 -2.10281324386597e+00 7.87292337417603e+00 38 
-1.57670307159424e+00 -2.67462301254272e+00 7.89699697494507e+00 39 
-1.00218284130096e+00 -2.67986774444580e+00 7.89131593704224e+00 40 
-9.95055615901947e-01 -2.10860633850098e+00 7.86709403991699e+00 41 
-9.88169789314270e-01 -1.53512966632843e+00 7.84192752838135e+00 42 
-9.81473326683044e-01 -9.58566725254059e-01 7.81794834136963e+00 43 
-9.74830925464630e-01 -3.80137503147125e-01 7.79547500610352e+00 44 
-9.68589007854462e-01 1.99256375432014e-01 7.77478790283203e+00 45 
-9.62630629539490e-01 7.78671383857727e-01 7.75412273406982e+00 46 
-9.56869125366211e-01 1.35750997066498e+00 7.73488855361938e+00 47 
-9.51306700706482e-01 1.93379712104797e+00 7.71602010726929e+00 48 
-9.45915162563324e-01 2.50732970237732e+00 7.69580030441284e+00 49 
-4.28645789623260e-01 -2.68388581275940e+00 7.88563060760498e+00 50 
-4.20258313417435e-01 -2.11275625228882e+00 7.86180877685547e+00 51 
-4.12177085876465e-01 -1.53967368602753e+00 7.83691120147705e+00 52 
-4.04717266559601e-01 -9.63486194610596e-01 7.81324911117554e+00 53 
-3.97564560174942e-01 -3.85407328605652e-01 7.78959369659424e+00 54 
-3.91377925872803e-01 1.93650037050247e-01 7.76860857009888e+00 55 
-3.85737240314484e-01 7.72518455982208e-01 7.75025796890259e+00 56 
-3.80571871995926e-01 1.35089802742004e+00 7.73195409774780e+00 57 
-3.76110017299652e-01 1.92673122882843e+00 7.71273565292358e+00 58 
-3.72118413448334e-01 2.49920248985291e+00 7.69192409515381e+00 59 
1.43202275037766e-01 -2.68635869026184e+00 7.88063192367554e+00 60 
1.53084874153137e-01 -2.11567950248718e+00 7.85691785812378e+00 61 
1.62239581346512e-01 -1.54323863983154e+00 7.83214426040649e+00 62 
1.70270338654518e-01 -9.67806220054626e-01 7.80731725692749e+00 63 
1.77859351038933e-01 -3.90456348657608e-01 7.78407239913940e+00 64 
1.83922410011292e-01 1.87734290957451e-01 7.76293468475342e+00 65 
1.89184457063675e-01 7.65656650066376e-01 7.74429559707642e+00 66 
1.93609118461609e-01 1.34312081336975e+00 7.72776699066162e+00 67 
1.97237402200699e-01 1.91805267333984e+00 7.70919466018677e+00 68 
7.11593806743622e-01 -2.68721985816956e+00 7.87535762786865e+00 69 
1.99707731604576e-01 2.48976325988770e+00 7.68819522857666e+00 70 
7.33402669429779e-01 -1.54553830623627e+00 7.82670545578003e+00 71 
7.42038786411285e-01 -9.71126794815063e-01 7.80184841156006e+00 72 
7.49950110912323e-01 -3.95089238882065e-01 7.77884721755981e+00 73 
7.55976498126984e-01 1.81831568479538e-01 7.75753021240234e+00 74 
7.60843634605408e-01 7.58322238922119e-01 7.73829650878906e+00 75 
7.64500260353088e-01 1.33431649208069e+00 7.72133016586304e+00 76 
1.28745520114899e+00 -2.11779427528381e+00 7.84594726562500e+00 77 
1.29997503757477e+00 -1.54717397689819e+00 7.82147216796875e+00 78 
7.68092632293701e-01 2.47852373123169e+00 7.68390417098999e+00 79 
1.30946147441864e+00 -9.74276721477509e-01 7.79724693298340e+00 80 
1.31858026981354e+00 -3.99390518665314e-01 7.77428627014160e+00 81 
1.32380342483521e+00 1.76444575190544e-01 7.75225639343262e+00 82 
1.32801020145416e+00 7.50504732131958e-01 7.73206853866577e+00 83 
1.33056294918060e+00 1.32451057434082e+00 7.71381235122681e+00 84 
1.33278810977936e+00 1.89628219604492e+00 7.69687509536743e+00 85 
-2.72255539894104e+00 -2.65752530097961e+00 7.90987348556519e+00 86 
-2.70662474632263e+00 -3.62809807062149e-01 7.81158971786499e+00 87 
-3.85136055946350e+00 -9.24135446548462e-01 7.84421968460083e+00 88 
-3.83378958702087e+00 8.00395309925079e-01 7.77602910995483e+00 89 
-3.82464909553528e+00 1.37410175800323e+00 7.75653028488159e+00 90 
-3.81488108634949e+00 1.94680106639862e+00 7.73889303207397e+00 91 
1.33012235164642e+00 2.46538567543030e+00 7.67736339569092e+00 92 
-3.80197787284851e+00 2.51608490943909e+00 7.71768569946289e+00 93 
1.27519822120667e+00 -2.68587255477905e+00 7.86859655380249e+00 94 
-3.85469460487366e+00 -2.63424038887024e+00 7.91900110244751e+00 95 
