ply
format ascii 1.0
element vertex 96
property double x
property double y
property double z
property char id
end_header
-1.40139997005463e-01 4.28499996662140e-01 1.18000002112240e-03 5 
-1.40249997377396e-01 5.71919977664948e-01 7.99999979790300e-04 6 
2.12999992072582e-03 -1.45209997892380e-01 1.90000003203750e-03 7 
-1.40279993414879e-01 8.58730018138885e-01 3.69999994290993e-04 8 
-1.40210002660751e-01 1.00207996368408e+00 7.99999979790300e-05 9 
2.15000007301569e-03 1.41719996929169e-01 1.09999999403954e-03 10 
2.12000007741153e-03 2.85210013389587e-01 7.30000028852373e-04 11 
2.02000001445413e-03 4.28559988737106e-01 1.69999999343418e-04 12 
1.90999999176711e-03 5.71950018405914e-01 -4.29999985499308e-04 13 
1.88999995589256e-03 7.15330004692078e-01 -8.50000011269003e-04 14 
1.85999996028841e-03 8.58690023422241e-01 -1.06999999843538e-03 15 
1.44470006227493e-01 -1.45349994301796e-01 1.33999995887280e-03 16 
1.79999996908009e-03 1.14540004730225e+00 -2.09999998332933e-04 17 
1.44459992647171e-01 -1.96000002324581e-03 6.39999983832240e-04 18 
1.44470006227493e-01 1.41550004482269e-01 5.99999984842725e-05 19 
1.44439995288849e-01 2.85089999437332e-01 -3.30000009853393e-04 20 
1.44350007176399e-01 4.28479999303818e-01 -8.59999970998615e-04 21 
1.44209995865822e-01 7.15309977531433e-01 -2.06000008620322e-03 22 
1.44170001149178e-01 8.58650028705597e-01 -1.88999995589256e-03 23 
1.44179999828339e-01 1.00188004970551e+00 -1.32000003941357e-03 24 
2.86810010671616e-01 -1.45490005612373e-01 7.99999979790300e-04 25 
2.86790013313293e-01 -2.09999992512167e-03 -7.99999979790300e-05 26 
2.86790013313293e-01 1.41409993171692e-01 -7.39999988581985e-04 27 
2.86779999732971e-01 2.84990012645721e-01 -1.50999997276813e-03 28 
2.86689996719360e-01 4.28429991006851e-01 -1.87999999616295e-03 29 
2.86659985780716e-01 5.71820020675659e-01 -2.30999989435077e-03 30 
2.86570012569427e-01 7.15229988098145e-01 -2.43999995291233e-03 31 
2.86529988050461e-01 8.58560025691986e-01 -1.68999994639307e-03 32 
2.86520004272461e-01 1.00179004669189e+00 -1.06999999843538e-03 33 
2.86440014839172e-01 1.14514994621277e+00 9.99999974737875e-05 34 
4.29120004177094e-01 -1.45600005984306e-01 3.60000005457550e-04 35 
4.29109990596771e-01 -2.22999998368323e-03 -7.80000002123415e-04 36 
4.29089993238449e-01 1.41310006380081e-01 -1.49000005330890e-03 37 
4.29089993238449e-01 2.84889996051788e-01 -2.11000000126660e-03 38 
4.29030001163483e-01 4.28350001573563e-01 -2.73999990895391e-03 39 
4.28999990224838e-01 5.71749985218048e-01 -2.73999990895391e-03 40 
4.28930014371872e-01 7.15149998664856e-01 -2.19999998807907e-03 41 
4.28880006074905e-01 8.58529984951019e-01 -1.55000004451722e-03 42 
4.28869992494583e-01 1.00172996520996e+00 -8.50000011269003e-04 43 
4.28779989480972e-01 1.14509999752045e+00 3.60000005457550e-04 44 
5.71099996566772e-01 1.14509999752045e+00 6.50000001769513e-04 45 
5.71210026741028e-01 1.00174999237061e+00 -5.79999992623925e-04 46 
5.71259975433350e-01 8.58510017395020e-01 -1.32999999914318e-03 47 
5.71300029754639e-01 7.15129971504211e-01 -1.96000002324581e-03 48 
5.71370005607605e-01 5.71739971637726e-01 -2.43999995291233e-03 49 
5.71380019187927e-01 4.28330004215240e-01 -2.79000005684793e-03 50 
5.71380019187927e-01 2.84869998693466e-01 -2.55000009201467e-03 51 
5.71380019187927e-01 1.41259998083115e-01 -2.12000007741153e-03 52 
5.71399986743927e-01 -2.25999997928739e-03 -1.30999996326864e-03 53 
5.71420013904572e-01 -1.45640000700951e-01 4.99999987368938e-05 54 
7.13360011577606e-01 1.14514994621277e+00 1.06999999843538e-03 55 
7.13440001010895e-01 1.00177001953125e+00 -1.90000006114133e-04 56 
7.13519990444183e-01 8.58529984951019e-01 -9.59999975748360e-04 57 
7.13569998741150e-01 7.15149998664856e-01 -1.64999999105930e-03 58 
7.13660001754761e-01 5.71730017662048e-01 -1.82999996468425e-03 59 
7.13630020618439e-01 4.28299993276596e-01 -2.12999992072582e-03 60 
7.13609993457794e-01 2.84880012273788e-01 -2.51000002026558e-03 61 
7.13620007038116e-01 1.41269996762276e-01 -2.37999996170402e-03 62 
7.13609993457794e-01 -2.27000005543232e-03 -1.56000000424683e-03 63 
7.13599979877472e-01 -1.45610004663467e-01 -5.99999984842725e-05 64 
8.55639994144440e-01 1.14526998996735e+00 1.49000005330890e-03 65 
8.55750024318695e-01 1.00186002254486e+00 3.49999987520278e-04 66 
8.55859994888306e-01 8.58609974384308e-01 -3.60000005457550e-04 67 
8.55859994888306e-01 7.15210020542145e-01 -6.90000015310943e-04 68 
8.55960011482239e-01 5.71780025959015e-01 -9.59999975748360e-04 69 
8.55899989604950e-01 4.28339987993240e-01 -1.24000001233071e-03 70 
8.55859994888306e-01 2.84920006990433e-01 -1.61999999545515e-03 71 
8.55859994888306e-01 1.41320005059242e-01 -2.03000009059906e-03 72 
8.55899989604950e-01 -2.21999990753829e-03 -1.49000005330890e-03 73 
9.97900009155273e-01 1.14544999599457e+00 1.93000002764165e-03 74 
8.55840027332306e-01 -1.45579993724823e-01 -7.99999979790300e-05 75 
9.98120009899139e-01 8.58650028705597e-01 6.00000028498471e-04 76 
9.98120009899139e-01 7.15229988098145e-01 3.60000005457550e-04 77 
9.98220026493073e-01 5.71810007095337e-01 7.00000018696301e-05 78 
9.98160004615784e-01 4.28369998931885e-01 -1.90000006114133e-04 79 
9.98120009899139e-01 2.84969985485077e-01 -5.00000023748726e-04 80 
9.98099982738495e-01 1.41379997134209e-01 -9.20000020414591e-04 81 
1.14006996154785e+00 1.00211000442505e+00 1.93000002764165e-03 82 
1.14020001888275e+00 8.58739972114563e-01 1.64000003132969e-03 83 
9.98080015182495e-01 -1.45569995045662e-01 -1.99999994947575e-05 84 
1.14024996757507e+00 7.15300023555756e-01 1.36999995447695e-03 85 
1.14032995700836e+00 5.71839988231659e-01 1.12999998964369e-03 86 
1.14024996757507e+00 4.28350001573563e-01 9.59999975748360e-04 87 
1.14020001888275e+00 2.85100013017654e-01 8.29999975394458e-04 88 
1.14014005661011e+00 1.41540005803108e-01 6.00000028498471e-04 89 
1.14022994041443e+00 -2.02000001445413e-03 3.80000012228265e-04 90 
1.44079998135567e-01 1.14524996280670e+00 -4.99999987368938e-05 91 
1.44260004162788e-01 5.71910023689270e-01 -1.55000004451722e-03 92 
-1.40249997377396e-01 7.15340018272400e-01 5.69999974686652e-04 93 
-1.40059992671013e-01 2.85239994525909e-01 1.50999997276813e-03 94 
-1.39970004558563e-01 1.41870006918907e-01 1.85999996028841e-03 95 
-1.39960005879402e-01 -1.64000003132969e-03 2.30999989435077e-03 96 
1.14011001586914e+00 -1.45510002970695e-01 4.40000003436580e-04 97 
-1.40070006251335e-01 -1.45080000162125e-01 2.73999990895391e-03 98 
1.13995003700256e+00 1.14558005332947e+00 2.45000002905726e-03 99 
-1.40330001711845e-01 1.14548003673553e+00 1.30000000353903e-04 100 
