ply
format ascii 1.0
element vertex 96
property double x
property double y
property double z
property char id
end_header
-2.14249998331070e-01 6.43050014972687e-01 -9.80000011622906e-04 2 
-7.13500007987022e-02 6.43119990825653e-01 -2.09999998332933e-04 3 
-3.56990009546280e-01 6.43130004405975e-01 -8.29999975394458e-04 4 
7.13699981570244e-02 6.43180012702942e-01 8.09999997727573e-04 5 
-4.99830007553101e-01 6.43100023269653e-01 -8.90000024810433e-04 6 
2.14070007205009e-01 6.43149971961975e-01 2.80000007478520e-04 7 
-6.42650008201599e-01 6.43060028553009e-01 -5.60000014957041e-04 8 
3.56979995965958e-01 6.43140017986298e-01 2.09999998332933e-04 9 
4.99790012836456e-01 6.43149971961975e-01 -1.36999995447695e-03 10 
6.42549991607666e-01 6.43209993839264e-01 -5.20000001415610e-04 11 
-2.14179992675781e-01 5.00079989433289e-01 -2.30000005103648e-04 12 
-7.14299976825714e-02 5.00129997730255e-01 1.40000003739260e-04 13 
-3.57039988040924e-01 5.00140011310577e-01 -6.00000028498471e-04 14 
7.13900029659271e-02 5.00140011310577e-01 1.29000004380941e-03 15 
2.14100003242493e-01 5.00150024890900e-01 5.69999974686652e-04 16 
-6.42639994621277e-01 5.00100016593933e-01 4.29999985499308e-04 17 
3.56979995965958e-01 5.00180006027222e-01 3.99999989895150e-04 18 
6.42560005187988e-01 5.00159978866577e-01 -1.01000000722706e-03 19 
-2.14059993624687e-01 3.57129991054535e-01 1.50000007124618e-04 20 
-3.56929987668991e-01 3.57169985771179e-01 1.99999994947575e-05 21 
-7.13400021195412e-02 3.57129991054535e-01 3.49999987520278e-04 22 
-4.99760001897812e-01 3.57199996709824e-01 5.60000014957041e-04 23 
7.14100003242493e-02 3.57149988412857e-01 2.24000005982816e-03 24 
-6.42499983310699e-01 3.57149988412857e-01 4.60000010207295e-04 25 
2.14179992675781e-01 3.57169985771179e-01 2.30999989435077e-03 26 
3.56900006532669e-01 3.57250005006790e-01 6.20000006165355e-04 27 
4.99769985675812e-01 3.57230007648468e-01 9.99999974737875e-06 28 
6.42530024051666e-01 3.57250005006790e-01 -8.59999970998615e-04 29 
-6.42509996891022e-01 2.14210003614426e-01 -9.99999974737875e-06 30 
-4.99720007181168e-01 2.14239999651909e-01 1.01999996695668e-03 31 
-3.56750011444092e-01 2.14210003614426e-01 9.39999998081475e-04 32 
-2.14019998908043e-01 2.14179992675781e-01 3.30000009853393e-04 33 
-7.12599977850914e-02 2.14200004935265e-01 3.49999987520278e-04 34 
3.56889992952347e-01 2.14279994368553e-01 5.90000010561198e-04 35 
7.15700015425682e-02 2.14190006256104e-01 3.62000009045005e-03 36 
2.14190006256104e-01 2.14220002293587e-01 2.36000004224479e-03 37 
4.99779999256134e-01 2.14259997010231e-01 -6.30000024102628e-04 38 
6.42620027065277e-01 2.14310005307198e-01 2.36999988555908e-03 39 
-3.56720000505447e-01 7.13400021195412e-02 9.59999975748360e-04 40 
-2.14000001549721e-01 7.13300034403801e-02 9.20000020414591e-04 41 
-6.42470002174377e-01 7.12999999523163e-02 4.01999987661839e-03 42 
-7.10899978876114e-02 7.13300034403801e-02 1.26000004820526e-03 43 
3.56849998235703e-01 7.14000016450882e-02 6.79999997373670e-04 44 
-4.99550014734268e-01 7.13400021195412e-02 3.49000003188848e-03 45 
4.99810010194778e-01 7.13500007987022e-02 9.80000011622906e-04 46 
2.14200004935265e-01 7.13400021195412e-02 2.19999998807907e-03 47 
6.42629981040955e-01 7.13400021195412e-02 2.09999992512167e-03 48 
7.16100037097931e-02 7.12999999523163e-02 3.96999996155500e-03 49 
-6.42340004444122e-01 -7.15100020170212e-02 5.90000010561198e-04 50 
-4.99540001153946e-01 -7.14699998497963e-02 7.60000024456531e-04 51 
6.42589986324310e-01 -7.15499967336655e-02 3.90000001061708e-04 52 
4.99790012836456e-01 -7.15499967336655e-02 2.09999998332933e-04 53 
-3.56640011072159e-01 -7.15100020170212e-02 1.91999995149672e-03 54 
-2.13970005512238e-01 -7.14899972081184e-02 3.30000009853393e-04 55 
-7.12499991059303e-02 -7.14399963617325e-02 2.89999996311963e-04 56 
3.56940001249313e-01 -7.14899972081184e-02 4.99999987368938e-05 57 
2.14190006256104e-01 -7.15100020170212e-02 1.06999999843538e-03 58 
7.15800002217293e-02 -7.15100020170212e-02 2.77999998070300e-03 59 
6.42560005187988e-01 -2.14310005307198e-01 -1.03000004310161e-03 60 
-6.42400026321411e-01 -2.14359998703003e-01 8.09999997727573e-04 61 
-4.99540001153946e-01 -2.14320003986359e-01 4.90000005811453e-04 62 
4.99779999256134e-01 -2.14340001344681e-01 -5.39999979082495e-04 63 
-3.56790006160736e-01 -2.14220002293587e-01 5.30000019352883e-04 64 
-2.14019998908043e-01 -2.14230000972748e-01 -1.50000007124618e-04 65 
3.56920003890991e-01 -2.14269995689392e-01 -3.99999989895150e-04 66 
-7.12699964642525e-02 -2.14179992675781e-01 7.99999979790300e-05 67 
2.14080005884171e-01 -2.14230000972748e-01 -1.19999996968545e-04 68 
7.15399980545044e-02 -2.14269995689392e-01 1.55000004451722e-03 69 
6.42599999904633e-01 -3.57250005006790e-01 -9.39999998081475e-04 70 
-6.42459988594055e-01 -3.57230007648468e-01 3.60000005457550e-04 71 
4.99810010194778e-01 -3.57270002365112e-01 -4.99999987368938e-05 72 
-4.99720007181168e-01 -3.57219994068146e-01 3.19999991916120e-04 73 
3.57010006904602e-01 -3.57190012931824e-01 -5.79999992623925e-04 74 
-3.56730014085770e-01 -3.57190012931824e-01 7.39999988581985e-04 75 
2.14100003242493e-01 -3.57129991054535e-01 -3.60000005457550e-04 76 
-2.13970005512238e-01 -3.57190012931824e-01 3.49999987520278e-04 77 
-7.11700022220612e-02 -3.57120007276535e-01 -1.19999996968545e-04 78 
7.13799968361855e-02 -3.57080012559891e-01 3.19999991916120e-04 79 
6.42539978027344e-01 -5.00100016593933e-01 -2.03000009059906e-03 80 
-6.42449975013733e-01 -5.00220000743866e-01 1.93000002764165e-03 81 
3.56970012187958e-01 -5.00079989433289e-01 -1.67000002693385e-03 82 
-3.56950014829636e-01 -5.00069975852966e-01 -4.99999987368938e-05 83 
-2.14200004935265e-01 -5.00029981136322e-01 -6.60000019706786e-04 84 
-7.12900012731552e-02 -5.00000000000000e-01 -9.10000002477318e-04 85 
2.14239999651909e-01 -5.00109970569611e-01 -3.99999989895150e-05 86 
7.15200006961823e-02 -5.00090003013611e-01 5.39999979082495e-04 87 
6.42599999904633e-01 -6.42949998378754e-01 -2.74999998509884e-03 88 
4.99810010194778e-01 -6.43000006675720e-01 -2.55000009201467e-03 89 
-6.42579972743988e-01 -6.43050014972687e-01 1.58000004012138e-03 90 
3.57059985399246e-01 -6.42949998378754e-01 -2.18000006861985e-03 91 
-4.99779999256134e-01 -6.43019974231720e-01 4.29999985499308e-04 92 
2.14230000972748e-01 -6.42949998378754e-01 -1.90999999176711e-03 93 
-3.56970012187958e-01 -6.42920017242432e-01 -4.60000010207295e-04 94 
-2.14230000972748e-01 -6.42889976501465e-01 -1.53999996837229e-03 95 
7.13900029659271e-02 -6.42849981784821e-01 -1.78000004962087e-03 96 
-7.12999999523163e-02 -6.42859995365143e-01 -1.61999999545515e-03 97 
