ply
format ascii 1.0
element vertex 96
property double x
property double y
property double z
property char id
end_header
-3.02240997552872e-01 1.90824374556541e-01 1.49750721454620e+00 0 
-3.04052650928497e-01 7.47805982828140e-02 1.50527632236481e+00 1 
-2.99817949533463e-01 3.05445611476898e-01 1.49111437797546e+00 2 
-3.05572509765625e-01 -4.21972200274467e-02 1.51471519470215e+00 3 
-2.97609955072403e-01 4.18596893548965e-01 1.48720502853394e+00 4 
-3.07109713554382e-01 -1.59148305654526e-01 1.52573406696320e+00 5 
-2.95399963855743e-01 5.30307292938232e-01 1.48467183113098e+00 6 
-3.07639718055725e-01 -2.75555700063705e-01 1.53639554977417e+00 7 
-3.08192998170853e-01 -3.90253245830536e-01 1.54738914966583e+00 8 
-3.07380676269531e-01 -5.04009604454041e-01 1.55829727649689e+00 9 
-2.13298365473747e-01 1.94524079561234e-01 1.56742191314697e+00 10 
-2.14966714382172e-01 7.81275480985641e-02 1.57514071464539e+00 11 
-2.11612686514854e-01 3.09628695249557e-01 1.56169760227203e+00 12 
-2.16000393033028e-01 -3.91893796622753e-02 1.58394491672516e+00 13 
-2.17468589544296e-01 -1.56415835022926e-01 1.59462332725525e+00 14 
-2.07530513405800e-01 5.35012543201447e-01 1.55519843101501e+00 15 
-2.18165472149849e-01 -2.72978663444519e-01 1.60490846633911e+00 16 
-2.18264773488045e-01 -5.00423192977905e-01 1.62381148338318e+00 17 
-1.23528517782688e-01 1.97976738214493e-01 1.63888454437256e+00 18 
-1.22171290218830e-01 3.13377708196640e-01 1.63323819637299e+00 19 
-1.24939918518066e-01 8.13484638929367e-02 1.64633274078369e+00 20 
-1.20467707514763e-01 4.27145957946777e-01 1.62905824184418e+00 21 
-1.25329658389091e-01 -3.61445061862469e-02 1.65419459342957e+00 22 
-1.19140215218067e-01 5.39194047451019e-01 1.62690496444702e+00 23 
-1.26344934105873e-01 -1.53590351343155e-01 1.66386282444000e+00 24 
-1.28041118383408e-01 -2.70066797733307e-01 1.67448019981384e+00 25 
-1.28628164529800e-01 -3.84950578212738e-01 1.68370795249939e+00 26 
-1.28987684845924e-01 -4.97427940368652e-01 1.69203734397888e+00 27 
-3.04168201982975e-02 5.42725980281830e-01 1.69904315471649e+00 28 
-3.08625213801861e-02 4.30608212947845e-01 1.70117974281311e+00 29 
-3.18225361406803e-02 3.16668361425400e-01 1.70530629158020e+00 30 
-3.32985371351242e-02 2.01210349798203e-01 1.71146202087402e+00 31 
-3.44867296516895e-02 8.44810307025909e-02 1.71875345706940e+00 32 
-3.76441515982151e-02 -2.66915738582611e-01 1.74524843692780e+00 33 
-3.39234471321106e-02 -3.31190973520279e-02 1.72523033618927e+00 34 
-3.56646925210953e-02 -1.50420457124710e-01 1.73516201972961e+00 35 
-3.90001684427261e-02 -3.81778925657272e-01 1.75425827503204e+00 36 
-3.79326120018959e-02 -4.94514048099518e-01 1.75960993766785e+00 37 
5.80778419971466e-02 3.19604486227036e-01 1.77822816371918e+00 38 
5.72652369737625e-02 2.04205334186554e-01 1.78429663181305e+00 39 
6.06669224798679e-02 5.45386075973511e-01 1.76810836791992e+00 40 
5.66405802965164e-02 8.74580740928650e-02 1.79111206531525e+00 41 
5.28099052608013e-02 -2.63439476490021e-01 1.81668734550476e+00 42 
5.99660798907280e-02 4.33339953422546e-01 1.77199983596802e+00 43 
5.18274046480656e-02 -3.78326475620270e-01 1.82407534122467e+00 44 
5.49002513289452e-02 -1.47097617387772e-01 1.80740773677826e+00 45 
5.14155216515064e-02 -4.90999996662140e-01 1.83005249500275e+00 46 
5.69556690752506e-02 -2.99786496907473e-02 1.79765832424164e+00 47 
1.47652983665466e-01 5.47465443611145e-01 1.84128940105438e+00 48 
1.47728309035301e-01 4.35746163129807e-01 1.84573626518250e+00 49 
1.39734685420990e-01 -4.87046778202057e-01 1.90197801589966e+00 50 
1.41233012080193e-01 -3.74448627233505e-01 1.89606308937073e+00 51 
1.48232042789459e-01 3.22042435407639e-01 1.85035014152527e+00 52 
1.46923705935478e-01 2.06942364573479e-01 1.85768616199493e+00 53 
1.46207123994827e-01 9.05236527323723e-02 1.86500883102417e+00 54 
1.42660826444626e-01 -2.59714543819427e-01 1.88909339904785e+00 55 
1.44625708460808e-01 -1.43535539507866e-01 1.88063549995422e+00 56 
1.46674513816833e-01 -2.66440473496914e-02 1.87136113643646e+00 57 
2.27732390165329e-01 -4.82794612646103e-01 1.97403001785278e+00 58 
2.35648840665817e-01 5.48898518085480e-01 1.91113924980164e+00 59 
2.36054018139839e-01 4.37527269124985e-01 1.91699194908142e+00 60 
2.30090603232384e-01 -3.70288461446762e-01 1.96819555759430e+00 61 
2.36269861459732e-01 3.24317842721939e-01 1.92326140403748e+00 62 
2.35925480723381e-01 2.09529682993889e-01 1.93060600757599e+00 63 
2.31956124305725e-01 -2.55751729011536e-01 1.96149849891663e+00 64 
2.35617056488991e-01 9.34859216213226e-02 1.93795061111450e+00 65 
2.33607202768326e-01 -1.39766305685043e-01 1.95392405986786e+00 66 
2.35620483756065e-01 -2.32551097869873e-02 1.94497251510620e+00 67 
3.16158384084702e-01 -4.78346049785614e-01 2.04546427726746e+00 68 
3.22324633598328e-01 5.49829185009003e-01 1.98063981533051e+00 69 
3.19030046463013e-01 -3.65957766771317e-01 2.03973102569580e+00 70 
3.23361515998840e-01 4.38980430364609e-01 1.98728573322296e+00 71 
3.20738554000854e-01 -2.51675784587860e-01 2.03369832038879e+00 72 
3.24433207511902e-01 3.26120108366013e-01 1.99425125122070e+00 73 
3.22402805089951e-01 -1.36007666587830e-01 2.02635407447815e+00 74 
3.24598401784897e-01 2.11837962269783e-01 2.00203800201416e+00 75 
3.24251919984818e-01 9.63121280074120e-02 2.01025843620300e+00 76 
3.23803991079330e-01 -1.98175311088562e-02 2.01812124252319e+00 77 
4.03152585029602e-01 -4.73669499158859e-01 2.11753773689270e+00 78 
4.09026384353638e-01 5.50647854804993e-01 2.04915499687195e+00 79 
4.08084422349930e-01 -2.47288525104523e-01 2.10588359832764e+00 80 
4.10611867904663e-01 3.27822655439377e-01 2.06485795974731e+00 81 
4.11083072423935e-01 2.14139267802238e-01 2.07351899147034e+00 82 
4.11230385303497e-01 9.91011038422585e-02 2.08213067054749e+00 83 
4.10521924495697e-01 -1.32235392928123e-01 2.09778976440430e+00 84 
4.11737412214279e-01 -1.65248680859804e-02 2.08946275711060e+00 85 
4.89525645971298e-01 -4.68780785799026e-01 2.18911004066467e+00 86 
4.92396891117096e-01 -3.56565564870834e-01 2.18348336219788e+00 87 
4.93307650089264e-01 5.50947487354279e-01 2.11704158782959e+00 88 
4.94675308465958e-01 -2.42970436811447e-01 2.17710232734680e+00 89 
4.94448035955429e-01 4.40746605396271e-01 2.12459754943848e+00 90 
4.96238738298416e-01 -1.28183037042618e-01 2.16963171958923e+00 91 
4.95713621377945e-01 3.29239100217819e-01 2.13397431373596e+00 92 
4.96447801589966e-01 2.16230466961861e-01 2.14372539520264e+00 93 
4.96977269649506e-01 -1.30559857934713e-02 2.16150403022766e+00 94 
4.97087389230728e-01 1.01868741214275e-01 2.15267872810364e+00 95 
