ply
format ascii 1.0
element vertex 704
property double x
property double y
property double size
property short id
end_header
6.24401757812500e+03 6.44579638671875e+03 1.40155899524689e+00 129 
4.07609448242188e+03 7.05089453125000e+03 1.06573522090912e+00 130 
7.78733544921875e+03 1.08615634765625e+04 1.10916662216187e+00 131 
4.51971289062500e+03 3.22059375000000e+03 1.64908027648926e+00 132 
4.56222119140625e+03 3.55239868164062e+03 1.63711690902710e+00 133 
1.11629858398438e+03 4.30675244140625e+03 1.51389539241791e+00 134 
4.51837841796875e+03 4.72480664062500e+03 1.68805718421936e+00 135 
2.83209936523438e+03 5.99458593750000e+03 1.77040314674377e+00 136 
2.40160449218750e+03 6.19293896484375e+03 1.46222507953644e+00 137 
5.10606347656250e+03 6.23026416015625e+03 1.58221340179443e+00 138 
2.85461010742188e+03 7.40177929687500e+03 1.72322010993958e+00 139 
3.22422705078125e+03 2.31521435546875e+03 1.37609684467316e+00 140 
1.25110461425781e+03 3.46155395507812e+03 1.25225615501404e+00 141 
1.90785070800781e+03 6.44823583984375e+03 3.11576771736145e+00 142 
4.63363342285156e+02 7.72281494140625e+02 2.40613603591919e+00 143 
1.10897131347656e+03 9.27696716308594e+02 2.82430195808411e+00 144 
4.75570361328125e+03 1.30641760253906e+03 2.76376676559448e+00 145 
7.69667541503906e+02 1.64307153320312e+03 2.07031726837158e+00 146 
4.12672265625000e+03 1.93438610839844e+03 2.42090773582458e+00 147 
4.56641699218750e+03 2.35879809570312e+03 2.57955574989319e+00 148 
1.83473291015625e+03 2.95347875976562e+03 1.91249370574951e+00 149 
3.22126562500000e+03 3.44222875976562e+03 2.48878026008606e+00 150 
1.02232092285156e+03 5.01364746093750e+03 2.58730268478394e+00 151 
2.55220169067383e+02 5.31763671875000e+03 2.64085793495178e+00 152 
2.39806472778320e+02 5.39775341796875e+03 2.68057441711426e+00 153 
6.18183544921875e+03 6.05317529296875e+03 2.44564557075500e+00 154 
4.06598852539062e+03 7.07692724609375e+03 2.95405888557434e+00 155 
5.10613232421875e+03 7.62727343750000e+03 2.03945851325989e+00 156 
5.96886279296875e+03 8.15054638671875e+03 2.82773137092590e+00 157 
3.40322827148438e+03 4.11477386474609e+02 2.72197866439819e+00 158 
4.97704785156250e+03 5.25614440917969e+02 2.85840082168579e+00 159 
5.00389355468750e+03 5.41491088867188e+02 1.95217466354370e+00 160 
4.97085266113281e+02 7.98682189941406e+02 1.97569632530212e+00 161 
1.41836083984375e+03 1.45198730468750e+03 2.04900932312012e+00 162 
4.65805877685547e+02 2.08277294921875e+03 1.98144745826721e+00 163 
3.18213647460938e+03 3.01105664062500e+03 1.99270248413086e+00 164 
6.11795849609375e+03 4.05920312500000e+03 2.36471533775330e+00 165 
6.71380065917969e+02 4.13690576171875e+03 2.85045933723450e+00 166 
8.23166564941406e+02 5.02331933593750e+03 2.54338836669922e+00 167 
8.00276367187500e+02 5.05496191406250e+03 2.39526891708374e+00 168 
1.52871240234375e+03 6.25316210937500e+03 2.80597591400146e+00 169 
5.11900781250000e+03 7.27680224609375e+03 2.41393399238586e+00 170 
2.75235424804688e+03 7.79440966796875e+03 2.07697606086731e+00 171 
4.84441894531250e+03 1.58573364257812e+03 3.21848630905151e+00 172 
5.07718109130859e+02 2.28242285156250e+03 3.22565865516663e+00 173 
2.18759063720703e+02 2.58231250000000e+03 3.02341747283936e+00 174 
9.62773010253906e+02 7.17912255859375e+03 3.02541112899780e+00 175 
5.88640722656250e+03 8.08160949707031e+02 2.23806953430176e+00 176 
3.00274121093750e+03 1.07883227539062e+03 2.69227504730225e+00 177 
3.51437353515625e+03 2.54519262695312e+03 2.28291225433350e+00 178 
3.47907501220703e+02 2.61392553710938e+03 2.72529339790344e+00 179 
3.48817504882812e+03 2.61448510742188e+03 2.30461096763611e+00 180 
5.53675146484375e+03 3.33051025390625e+03 1.88246572017670e+00 181 
4.87415332031250e+03 4.63847167968750e+03 2.39131569862366e+00 182 
4.49862597656250e+03 6.14358349609375e+03 1.88799631595612e+00 183 
3.09880541992188e+03 7.22020068359375e+03 2.23340392112732e+00 184 
5.12024902343750e+03 7.25290136718750e+03 2.37400650978088e+00 185 
5.13437353515625e+03 7.64683447265625e+03 2.40847945213318e+00 186 
5.14554345703125e+03 7.70499951171875e+03 2.40814113616943e+00 187 
1.84244995117188e+03 8.18878906250000e+03 2.41862368583679e+00 188 
1.47904174804688e+03 1.67163940429688e+03 3.59433698654175e+00 189 
3.32182348632812e+03 8.29600683593750e+03 1.24944937229156e+00 190 
3.43856103515625e+03 3.78327758789062e+02 1.75157606601715e+00 191 
1.50965673828125e+03 1.07111450195312e+03 1.56054806709290e+00 192 
2.83522656250000e+03 2.81051708984375e+03 1.53972506523132e+00 193 
3.83027685546875e+03 4.29185058593750e+03 1.74527847766876e+00 194 
2.61986621093750e+03 4.60236523437500e+03 1.40363156795502e+00 195 
5.77510803222656e+02 5.48628564453125e+03 1.63263332843781e+00 196 
1.45783972167969e+03 5.50275292968750e+03 1.55923736095428e+00 197 
1.31131384277344e+03 6.74381201171875e+03 1.60542690753937e+00 198 
5.35289257812500e+03 1.15932509765625e+04 1.46175277233124e+00 199 
3.09846679687500e+03 1.11958398437500e+03 1.33814430236816e+00 200 
4.07703662109375e+03 3.66127343750000e+03 9.85301733016968e-01 201 
5.71902685546875e+03 4.50888867187500e+03 1.43872249126434e+00 202 
5.82097216796875e+03 4.50856982421875e+03 1.12211823463440e+00 203 
6.02033203125000e+03 7.10222363281250e+03 1.11889791488647e+00 204 
2.87927539062500e+03 7.19743652343750e+03 1.39460659027100e+00 205 
5.07997998046875e+03 8.17359716796875e+03 1.14625239372253e+00 206 
2.46321118164062e+03 1.03464469909668e+02 1.71532595157623e+00 207 
3.84656884765625e+03 1.03346191406250e+03 1.68804275989532e+00 208 
5.00173925781250e+03 1.97282812500000e+03 1.52226996421814e+00 209 
2.13056835937500e+03 2.04449133300781e+03 1.60369408130646e+00 210 
5.04042675781250e+03 2.58497241210938e+03 1.57705712318420e+00 211 
1.91248706054688e+03 3.96701318359375e+03 1.50896847248077e+00 212 
5.41556103515625e+03 4.58244726562500e+03 1.46949076652527e+00 213 
2.64762451171875e+03 5.00700781250000e+03 1.71765828132629e+00 214 
5.46048730468750e+03 6.16468212890625e+03 1.49397206306458e+00 215 
4.14176708984375e+03 6.20491796875000e+03 1.62693417072296e+00 216 
1.62589685058594e+03 8.11936914062500e+03 1.51335549354553e+00 217 
3.54137377929688e+03 5.15339550781250e+03 1.25862669944763e+00 218 
4.77663037109375e+03 6.33786572265625e+03 1.41201865673065e+00 219 
5.99581933593750e+03 7.08437158203125e+03 1.11038017272949e+00 220 
5.86655859375000e+03 1.03172236328125e+04 9.16951239109039e-01 221 
3.94795800781250e+03 1.21519062500000e+04 1.08029258251190e+00 222 
4.53714892578125e+03 1.72164160156250e+03 1.49188256263733e+00 223 
4.11230615234375e+03 4.24913574218750e+03 1.50279963016510e+00 224 
4.11168310546875e+03 4.25682421875000e+03 1.43927156925201e+00 225 
2.76182861328125e+03 4.29704541015625e+03 1.51026916503906e+00 226 
4.45110107421875e+03 5.85563183593750e+03 1.66161417961121e+00 227 
6.83896057128906e+02 4.13084326171875e+03 3.03292942047119e+00 228 
6.45937927246094e+02 4.14795849609375e+03 3.14492893218994e+00 229 
1.91820800781250e+03 4.96479003906250e+03 3.44109559059143e+00 230 
4.58588867187500e+03 8.03112695312500e+03 3.05499958992004e+00 231 
1.90267321777344e+03 6.44935107421875e+03 6.58807754516602e+00 232 
2.46140365600586e+02 1.25972583007812e+03 5.17219400405884e+00 233 
6.18089599609375e+03 7.51112060546875e+03 4.17577886581421e+00 234 
1.70801794433594e+03 7.03962597656250e+03 6.67645740509033e+00 235 
5.86786230468750e+03 9.43467483520508e+01 3.92959642410278e+00 236 
2.60505493164062e+03 2.90487988281250e+03 4.69877338409424e+00 237 
5.75884521484375e+03 7.28447705078125e+03 4.00122928619385e+00 238 
1.39164831542969e+03 2.68765319824219e+02 5.20908975601196e+00 239 
5.81477832031250e+03 3.10846997070312e+03 4.92556047439575e+00 240 
3.55096411132812e+03 6.04750732421875e+03 4.11410617828369e+00 241 
4.30076904296875e+03 7.24050146484375e+03 4.86749076843262e+00 242 
1.31856933593750e+03 7.48912304687500e+03 5.08136034011841e+00 243 
4.43744726562500e+03 8.09740478515625e+03 4.44472455978394e+00 244 
1.27571337890625e+03 4.08113183593750e+03 6.58317136764526e+00 245 
2.40921539306641e+02 1.27411291503906e+03 5.24007987976074e+00 246 
2.41818310546875e+03 3.41901684570312e+03 5.53018903732300e+00 247 
2.40430029296875e+03 3.44785058593750e+03 4.10655307769775e+00 248 
3.50826977539062e+03 6.24773291015625e+03 4.13697433471680e+00 249 
7.18397583007812e+02 7.06965234375000e+03 4.71241569519043e+00 250 
5.68851379394531e+02 2.00564178466797e+02 6.72103738784790e+00 251 
3.86705249023438e+03 5.81354785156250e+03 4.51548910140991e+00 252 
3.66583154296875e+03 2.43490014648438e+03 1.23116934299469e+00 253 
6.20392871093750e+03 2.80401147460938e+03 1.07432889938354e+00 254 
1.74868017578125e+03 3.62564599609375e+03 1.20895850658417e+00 255 
2.72945434570312e+03 4.38746093750000e+03 1.41157817840576e+00 256 
3.43266479492188e+03 5.10101562500000e+03 1.35004806518555e+00 257 
2.52911157226562e+03 5.37490527343750e+03 1.22867321968079e+00 258 
4.51946502685547e+02 5.66419580078125e+03 1.28402817249298e+00 259 
5.57263330078125e+03 7.74488037109375e+03 1.36486542224884e+00 260 
5.54640014648438e+02 3.36750732421875e+02 1.53137898445129e+00 261 
1.45029821777344e+03 1.22686315917969e+03 1.51921975612640e+00 262 
3.46626684570312e+03 3.99851586914062e+03 1.56169998645782e+00 263 
2.57025317382812e+03 5.01639013671875e+03 1.70120203495026e+00 264 
1.46467614746094e+03 5.49264746093750e+03 1.68211495876312e+00 265 
5.45451904296875e+03 6.16296679687500e+03 1.70827829837799e+00 266 
5.34137695312500e+03 6.44582373046875e+03 1.72495019435883e+00 267 
3.13420727539062e+03 7.24996630859375e+03 1.73408687114716e+00 268 
1.74586547851562e+03 8.11749804687500e+03 1.48618686199188e+00 269 
1.86330126953125e+03 1.79887109375000e+03 1.35005509853363e+00 270 
1.34613342285156e+03 2.79304687500000e+03 1.11040663719177e+00 271 
1.75658471679688e+03 3.62802294921875e+03 1.08747673034668e+00 272 
5.91907714843750e+03 6.62617187500000e+03 1.41222262382507e+00 273 
2.38735693359375e+03 8.29948925781250e+03 1.01189076900482e+00 274 
3.40489892578125e+03 1.03189184570312e+03 1.55480813980103e+00 275 
2.42596801757812e+03 1.58875048828125e+03 1.67805528640747e+00 276 
3.11265063476562e+03 3.68932739257812e+03 1.44363069534302e+00 277 
2.56631274414062e+03 5.02445751953125e+03 1.62662112712860e+00 278 
4.00672949218750e+03 5.33830273437500e+03 1.45790982246399e+00 279 
2.43933471679688e+03 6.01555908203125e+03 1.66639518737793e+00 280 
4.29047412109375e+03 7.85804736328125e+03 1.50996184349060e+00 281 
5.90357324218750e+03 7.55989624023438e+02 1.40895795822144e+00 282 
1.94430017089844e+03 2.41245947265625e+03 1.29099142551422e+00 283 
4.06003686523438e+03 3.24330444335938e+03 1.14083635807037e+00 284 
5.96141503906250e+03 5.15249511718750e+03 1.30419957637787e+00 285 
4.44849951171875e+03 5.54279980468750e+03 1.21415150165558e+00 286 
2.12851000976562e+03 4.36188671875000e+03 1.20094347000122e+00 287 
4.60178222656250e+02 5.65593750000000e+03 1.25878477096558e+00 288 
4.71634863281250e+03 5.86854882812500e+03 1.29396176338196e+00 289 
2.28094589233398e+02 1.35828588867188e+03 1.44815695285797e+00 290 
1.82334533691406e+03 2.12012817382812e+03 1.62004458904266e+00 291 
3.39690698242188e+03 2.64515234375000e+03 1.64045929908752e+00 292 
2.73176025390625e+03 4.34178417968750e+03 1.57705068588257e+00 293 
2.61099414062500e+03 5.00519628906250e+03 1.67859899997711e+00 294 
6.28841210937500e+03 5.98243212890625e+03 1.58143222332001e+00 295 
2.32301831054688e+03 7.25663818359375e+03 1.77341651916504e+00 296 
3.95210961914062e+03 2.15187133789062e+02 2.24643564224243e+00 297 
5.93875244140625e+03 6.47462768554688e+02 2.36173868179321e+00 298 
1.56575610351562e+03 9.33740173339844e+02 2.28430390357971e+00 299 
5.78315429687500e+03 1.14092517089844e+03 2.27824711799622e+00 300 
4.13596582031250e+03 1.91284521484375e+03 2.38929367065430e+00 301 
2.90469409179688e+03 2.96762255859375e+03 2.61280632019043e+00 302 
6.12898974609375e+03 4.04918505859375e+03 2.00947976112366e+00 303 
6.11934423828125e+03 5.48596582031250e+03 1.96298027038574e+00 304 
4.42254736328125e+03 6.33801708984375e+03 2.65053653717041e+00 305 
4.94720764160156e+02 6.79797753906250e+03 2.77952027320862e+00 306 
6.10456835937500e+03 7.20058203125000e+03 1.89659583568573e+00 307 
5.71635546875000e+03 7.91616943359375e+03 2.49288082122803e+00 308 
4.15118164062500e+03 1.12346435546875e+02 3.35478901863098e+00 309 
4.30444531250000e+03 3.40272534179688e+03 3.10737824440002e+00 310 
1.34388720703125e+03 3.70679589843750e+03 3.56541657447815e+00 311 
3.54739379882812e+03 3.81895458984375e+03 3.23449206352234e+00 312 
4.77527929687500e+03 4.14535839843750e+03 3.31700611114502e+00 313 
6.20205078125000e+03 7.48544921875000e+03 3.08252739906311e+00 314 
1.74626721191406e+03 3.62996093750000e+02 2.37457466125488e+00 315 
5.87862158203125e+03 7.50149536132812e+02 1.85668802261353e+00 316 
1.32020202636719e+03 1.47920874023438e+03 2.20516276359558e+00 317 
5.62015234375000e+03 3.33831323242188e+03 2.13036060333252e+00 318 
7.91018371582031e+02 5.04811181640625e+03 2.58785724639893e+00 319 
2.58641601562500e+03 5.21840722656250e+03 1.90018260478973e+00 320 
3.01107635498047e+02 6.34965380859375e+03 2.43047857284546e+00 321 
3.08591583251953e+02 8.07368457031250e+03 2.16131806373596e+00 322 
2.41094897460938e+03 3.48996264648438e+03 3.31229281425476e+00 323 
5.16794726562500e+03 1.80995935058594e+03 6.27759122848511e+00 324 
3.51839935302734e+02 3.45004565429688e+03 6.21794700622559e+00 325 
4.36652197265625e+03 7.93233740234375e+03 6.70160579681396e+00 326 
2.44676977539062e+03 8.04535302734375e+03 6.47475433349609e+00 327 
1.48523632812500e+03 8.16992089843750e+03 6.97445297241211e+00 328 
2.42845556640625e+03 8.05914746093750e+03 5.44895410537720e+00 329 
2.23192407226562e+03 7.00283203125000e+03 8.07265472412109e+00 330 
4.42047851562500e+03 7.95799023437500e+03 8.31598854064941e+00 331 
1.58341198730469e+03 8.01461914062500e+03 7.62305688858032e+00 332 
4.88155224609375e+03 6.61248291015625e+03 7.14949846267700e+00 333 
1.21725883483887e+02 6.73702539062500e+03 8.59945106506348e+00 334 
4.96274755859375e+03 6.50428173828125e+03 1.29531860351562e+01 335 
1.56381054687500e+03 2.28797924804688e+03 9.31647491455078e+00 336 
3.18383422851562e+03 7.43722216796875e+03 9.58340644836426e+00 337 
2.24099536132812e+03 7.17244189453125e+03 8.45253658294678e+00 338 
3.12117871093750e+03 7.22611181640625e+03 9.63542270660400e+00 339 
4.95233447265625e+03 2.44323339843750e+03 7.94239521026611e+00 340 
4.85051025390625e+02 6.83432470703125e+03 9.69904899597168e+00 341 
3.25324511718750e+03 6.57696191406250e+03 2.43218154907227e+01 342 
2.09733862304688e+03 1.09720129394531e+03 1.99871673583984e+01 343 
3.53209472656250e+03 6.65348974609375e+03 1.58668880462646e+01 344 
2.15886547851562e+03 5.34305029296875e+03 3.23130631446838e+00 345 
2.87519555664062e+03 7.41172509765625e+03 3.00372862815857e+00 346 
2.77635986328125e+02 8.16515478515625e+03 3.42717647552490e+00 347 
1.73560485839844e+03 3.50732025146484e+02 2.16236519813538e+00 348 
5.22331665039062e+02 4.13074035644531e+02 2.18516230583191e+00 349 
2.31516650390625e+03 1.26072045898438e+03 1.92899584770203e+00 350 
3.48015820312500e+03 2.64979980468750e+03 2.70057535171509e+00 351 
4.51852832031250e+03 3.06461132812500e+03 2.25020885467529e+00 352 
4.86947705078125e+03 4.36983642578125e+03 2.77874541282654e+00 353 
3.79594238281250e+02 5.59571337890625e+03 2.42232871055603e+00 354 
3.00242236328125e+03 5.74076953125000e+03 2.02691745758057e+00 355 
5.69604101562500e+03 6.18322070312500e+03 3.05989789962769e+00 356 
2.88673364257812e+03 7.41051855468750e+03 1.79493713378906e+00 357 
5.09712011718750e+03 7.62001953125000e+03 2.23069310188293e+00 358 
4.43990917968750e+03 8.08322607421875e+03 2.07968449592590e+00 359 
4.84754345703125e+03 8.17762890625000e+03 2.43948936462402e+00 360 
5.28653271484375e+03 3.43317529296875e+03 3.36443758010864e+00 361 
3.45300512695312e+03 4.11137792968750e+03 3.12308406829834e+00 362 
4.86771533203125e+03 4.38218115234375e+03 3.12062811851501e+00 363 
3.34690460205078e+02 6.45332958984375e+03 2.99217653274536e+00 364 
7.49234191894531e+02 7.16131896972656e+01 2.12384533882141e+00 365 
1.71357287597656e+03 3.10420349121094e+02 2.07065629959106e+00 366 
5.79015917968750e+03 1.12143750000000e+03 2.39242148399353e+00 367 
6.23926220703125e+03 3.59041503906250e+03 2.17696070671082e+00 368 
6.34046081542969e+02 4.15469189453125e+03 2.52546834945679e+00 369 
1.85213110351562e+03 5.19007958984375e+03 2.07401084899902e+00 370 
3.46758636474609e+02 5.54845947265625e+03 2.49296045303345e+00 371 
5.12034521484375e+03 7.22917675781250e+03 2.58631062507629e+00 372 
4.56698242187500e+03 8.01999951171875e+03 2.91459679603577e+00 373 
7.15793029785156e+02 1.66037768554688e+03 2.45105361938477e+00 374 
6.04894384765625e+03 1.79281445312500e+03 2.70455098152161e+00 375 
3.51973437500000e+03 2.22388940429688e+03 1.91520452499390e+00 376 
3.00234497070312e+03 2.41284301757812e+03 1.84934365749359e+00 377 
5.60951416015625e+03 3.33665332031250e+03 2.03561019897461e+00 378 
3.85862109375000e+03 3.89619921875000e+03 2.12999796867371e+00 379 
3.08408032226562e+03 4.16577294921875e+03 1.81408262252808e+00 380 
1.96454357910156e+03 4.71263378906250e+03 2.67373490333557e+00 381 
2.99917602539062e+02 5.48218017578125e+03 2.42967057228088e+00 382 
3.73049346923828e+02 5.58639306640625e+03 2.42604255676270e+00 383 
2.98598876953125e+03 5.66744335937500e+03 2.05455994606018e+00 384 
1.53879931640625e+03 6.59924365234375e+03 2.49892354011536e+00 385 
5.72497119140625e+03 7.92428222656250e+03 2.56553244590759e+00 386 
8.47101074218750e+03 6.75642773437500e+03 1.42630648612976e+00 387 
8.07573876953125e+03 1.33248291015625e+03 1.66679823398590e+00 388 
3.08563818359375e+03 2.14604980468750e+03 1.58082270622253e+00 389 
3.24746069335938e+03 2.97390454101562e+03 1.49631226062775e+00 390 
4.30947900390625e+03 3.38609252929688e+03 1.51451230049133e+00 391 
5.35722460937500e+03 4.71114697265625e+03 1.50514721870422e+00 392 
6.72317187500000e+03 6.28169970703125e+03 1.52393531799316e+00 393 
6.87903125000000e+03 6.43142529296875e+03 1.49291014671326e+00 394 
3.19117358398438e+03 1.70553726196289e+02 1.04829835891724e+00 395 
5.09585058593750e+03 7.29502636718750e+03 1.38784754276276e+00 396 
7.90088671875000e+03 1.25556640625000e+03 1.50980901718140e+00 397 
6.58171630859375e+03 1.48248107910156e+03 1.68542110919952e+00 398 
6.83585253906250e+03 4.84411285400391e+02 1.40730440616608e+00 399 
4.88610644531250e+03 6.44667663574219e+02 1.90795218944550e+00 400 
9.86813964843750e+02 3.49133691406250e+03 2.32789564132690e+00 401 
6.45270263671875e+03 6.55572167968750e+03 2.11223530769348e+00 402 
7.24589746093750e+03 6.99256542968750e+03 2.41884636878967e+00 403 
4.30337304687500e+03 7.21890283203125e+03 2.73336172103882e+00 404 
8.54147363281250e+03 2.01886804199219e+03 1.92614209651947e+00 405 
2.63652441406250e+03 3.43650073242188e+03 2.76606678962708e+00 406 
3.42009368896484e+02 6.45343164062500e+03 2.37727642059326e+00 407 
6.42982275390625e+03 6.80271386718750e+03 2.24666476249695e+00 408 
4.99984521484375e+03 2.58293627929688e+03 2.96750283241272e+00 409 
6.49106250000000e+03 7.27202783203125e+03 2.85865616798401e+00 410 
1.49676208496094e+03 7.30420703125000e+03 2.85540294647217e+00 411 
7.81097753906250e+03 6.43852880859375e+03 2.35066890716553e+00 412 
3.90162841796875e+03 5.83269836425781e+02 3.26690149307251e+00 413 
8.64564355468750e+03 3.14928955078125e+03 3.53585433959961e+00 414 
8.72410546875000e+03 3.16413452148438e+03 3.29250836372375e+00 415 
8.18864453125000e+03 2.19464208984375e+03 1.45567142963409e+00 416 
4.08436596679688e+03 3.99402148437500e+03 1.53635501861572e+00 417 
3.42624829101562e+03 4.88222802734375e+03 1.76731359958649e+00 418 
8.56186914062500e+03 5.79450048828125e+03 1.41440677642822e+00 419 
5.00686083984375e+03 8.12559033203125e+03 1.25841951370239e+00 420 
8.46581152343750e+03 1.25056799316406e+03 1.58528804779053e+00 421 
6.67512060546875e+03 1.26716821289062e+03 1.76451599597931e+00 422 
8.46029785156250e+03 1.33749841308594e+03 1.55492019653320e+00 423 
6.58448437500000e+03 1.94306359863281e+03 1.76952290534973e+00 424 
7.19428515625000e+03 4.04655053710938e+03 1.65412390232086e+00 425 
7.29118115234375e+03 1.44470611572266e+02 1.05503821372986e+00 426 
4.66547509765625e+03 2.76492523193359e+02 1.37577426433563e+00 427 
7.38836669921875e+03 3.97142486572266e+02 1.35119330883026e+00 428 
5.14951904296875e+03 1.46918151855469e+03 1.41271221637726e+00 429 
2.94465625000000e+03 4.61118847656250e+03 1.41162407398224e+00 430 
6.82841601562500e+03 7.37352539062500e+03 1.28935027122498e+00 431 
9.44026611328125e+02 8.06955664062500e+03 1.26369595527649e+00 432 
2.56064013671875e+03 1.87278839111328e+02 1.61287009716034e+00 433 
8.11619482421875e+03 1.33983740234375e+03 1.45857930183411e+00 434 
6.57228320312500e+03 1.93390368652344e+03 1.61529219150543e+00 435 
6.00661767578125e+03 2.12667578125000e+03 1.43205213546753e+00 436 
6.65965771484375e+03 1.78019995117188e+03 3.19355559349060e+00 437 
8.70194628906250e+03 3.27057421875000e+03 3.46489048004150e+00 438 
6.73329833984375e+03 7.58339892578125e+03 6.80843687057495e+00 439 
7.19870458984375e+03 7.79672656250000e+03 3.64173078536987e+00 440 
4.79037933349609e+02 7.92467382812500e+03 3.98277974128723e+00 441 
3.42915802001953e+02 8.01207373046875e+03 4.00012493133545e+00 442 
1.47888049316406e+03 1.68563122558594e+03 5.00723934173584e+00 443 
8.08652001953125e+03 3.34294775390625e+03 5.90952634811401e+00 444 
1.12581604003906e+03 4.06191577148438e+03 3.94297623634338e+00 445 
4.08168823242188e+03 1.39941564941406e+03 6.11851453781128e+00 446 
8.64785253906250e+03 3.27583544921875e+03 3.67760610580444e+00 447 
6.87203710937500e+03 6.98399902343750e+02 1.21243941783905e+00 448 
3.90707495117188e+03 2.49123046875000e+03 1.37130546569824e+00 449 
1.11407910156250e+03 2.88935986328125e+03 1.18609178066254e+00 450 
5.02239599609375e+03 5.47343139648438e+02 1.48626136779785e+00 451 
6.78176220703125e+03 1.36755749511719e+03 1.70030319690704e+00 452 
7.65504394531250e+03 1.09480407714844e+03 1.31433057785034e+00 453 
5.70346923828125e+03 1.11090612792969e+03 1.26768732070923e+00 454 
3.45658398437500e+03 3.99190234375000e+03 1.31325888633728e+00 455 
7.57641455078125e+03 1.49788070678711e+02 1.51456356048584e+00 456 
7.64785449218750e+03 1.09544689941406e+03 1.71552085876465e+00 457 
8.33546203613281e+02 3.02564843750000e+03 1.54633343219757e+00 458 
2.50593334960938e+03 3.18066992187500e+03 1.69066059589386e+00 459 
6.63799365234375e+03 6.17225878906250e+03 1.52123129367828e+00 460 
1.48248657226562e+03 2.98434082031250e+03 1.20248758792877e+00 461 
5.34361669921875e+03 4.52361328125000e+03 1.01343393325806e+00 462 
2.98294580078125e+03 5.63316210937500e+03 1.23822391033173e+00 463 
8.33610449218750e+03 2.15562622070312e+02 1.52170526981354e+00 464 
5.86109033203125e+03 2.74825097656250e+03 1.55084228515625e+00 465 
8.37730078125000e+03 5.70788330078125e+03 1.44030380249023e+00 466 
3.70678369140625e+03 1.91306103515625e+03 2.35559749603271e+00 467 
7.95501892089844e+02 2.90283618164062e+03 1.99839067459106e+00 468 
9.21237030029297e+01 3.22168457031250e+03 2.46347618103027e+00 469 
7.25995507812500e+03 3.32921459960938e+03 1.83959174156189e+00 470 
4.78776708984375e+03 3.70634179687500e+03 1.90054345130920e+00 471 
5.83879931640625e+03 6.49637109375000e+03 1.89685070514679e+00 472 
1.50591699218750e+03 7.31276562500000e+03 2.87083935737610e+00 473 
7.61471130371094e+02 1.64590417480469e+03 3.11729073524475e+00 474 
6.72944189453125e+03 2.83749560546875e+03 3.36924219131470e+00 475 
1.25705004882812e+03 2.72118481445312e+03 1.82488751411438e+00 476 
6.69214013671875e+03 3.84085083007812e+03 2.12991380691528e+00 477 
7.86673828125000e+03 6.64443847656250e+03 2.10982632637024e+00 478 
7.22794189453125e+03 3.52493139648438e+03 3.82501316070557e+00 479 
2.97882568359375e+02 3.26906909179688e+03 6.96213436126709e+00 480 
5.47591650390625e+03 3.34462622070312e+03 3.69003510475159e+00 481 
9.70594665527344e+02 3.44430102539062e+03 2.16791114807129e+01 482 
7.25173034667969e+02 3.32458081054688e+03 2.13045158386230e+01 483 
2.99912622070312e+03 1.28947738647461e+02 1.80296313762665e+00 484 
8.18285937500000e+03 3.67193054199219e+02 2.81788301467896e+00 485 
3.42637109375000e+03 1.13955993652344e+03 2.46422028541565e+00 486 
7.96394384765625e+03 2.81003808593750e+03 2.28827667236328e+00 487 
5.01908496093750e+03 6.15209667968750e+03 1.85509002208710e+00 488 
9.25439758300781e+02 7.89616210937500e+03 2.04888272285461e+00 489 
3.68342333984375e+03 1.18199377441406e+03 2.85333418846130e+00 490 
8.67839648437500e+03 6.83729003906250e+03 3.12005496025085e+00 491 
7.92451220703125e+03 7.42827636718750e+03 3.32347154617310e+00 492 
4.73776092529297e+02 8.14646826171875e+03 3.13228940963745e+00 493 
2.25375411987305e+02 2.25577832031250e+03 2.17836689949036e+00 494 
5.08933007812500e+03 3.08540380859375e+03 2.33587217330933e+00 495 
2.50532446289062e+03 3.18109228515625e+03 1.90235280990601e+00 496 
1.88338464355469e+03 3.30610888671875e+03 2.42175602912903e+00 497 
4.85941455078125e+03 5.01686669921875e+03 1.92299604415894e+00 498 
6.27757861328125e+03 6.39130468750000e+03 2.65766191482544e+00 499 
2.51391650390625e+03 7.36491796875000e+03 2.12107586860657e+00 500 
3.34744140625000e+03 8.27099902343750e+03 1.97819733619690e+00 501 
3.97938867187500e+03 6.28721289062500e+03 1.68477666378021e+00 502 
1.30251416015625e+03 6.81699511718750e+03 1.53143870830536e+00 503 
3.75292260742188e+03 1.30156341552734e+02 1.29450058937073e+00 504 
7.06049316406250e+03 3.05898852539062e+03 1.28193390369415e+00 505 
6.50888330078125e+03 3.23049682617188e+03 1.16512846946716e+00 506 
4.72397802734375e+03 3.82194482421875e+03 1.09589099884033e+00 507 
8.06898339843750e+03 3.92539038085938e+03 1.18401527404785e+00 508 
8.23409082031250e+03 5.41990527343750e+03 9.37067627906799e-01 509 
7.33414941406250e+03 5.52966357421875e+03 1.12972021102905e+00 510 
8.65575292968750e+03 5.78264160156250e+03 1.35455107688904e+00 511 
4.62634863281250e+03 5.90931640625000e+03 1.30008041858673e+00 512 
8.61576293945312e+02 8.20296777343750e+03 1.29483723640442e+00 513 
2.15202514648438e+03 1.02471894531250e+04 1.23288381099701e+00 514 
2.46586987304688e+03 5.62129699707031e+02 1.61738932132721e+00 515 
8.48234375000000e+03 7.06114440917969e+02 1.53004407882690e+00 516 
7.02505957031250e+03 9.06156372070312e+02 1.53925764560699e+00 517 
3.85348364257812e+03 9.61920532226562e+02 1.67591619491577e+00 518 
3.23932666015625e+03 9.77617248535156e+02 1.69758546352386e+00 519 
5.91771582031250e+03 1.67759448242188e+03 1.58572113513947e+00 520 
6.49333349609375e+03 3.20054028320312e+03 1.56644535064697e+00 521 
6.47102294921875e+03 3.64611132812500e+03 1.44342005252838e+00 522 
6.92448242187500e+03 4.39303222656250e+03 1.62117648124695e+00 523 
7.94677001953125e+03 5.23822900390625e+03 1.65481555461884e+00 524 
7.01164794921875e+03 5.24557275390625e+03 1.65358018875122e+00 525 
7.58636914062500e+03 5.43287841796875e+03 1.63642692565918e+00 526 
7.59150195312500e+03 5.44865478515625e+03 1.47968316078186e+00 527 
8.82441503906250e+03 6.98161181640625e+03 1.58080279827118e+00 528 
2.36732958984375e+03 7.06257714843750e+03 1.40606606006622e+00 529 
3.01693676757812e+03 7.69514648437500e+03 1.61134684085846e+00 530 
3.75881176757812e+03 1.46374282836914e+02 1.31522524356842e+00 531 
6.64203271484375e+03 1.55115783691406e+02 1.37904095649719e+00 532 
8.14155908203125e+03 5.03104919433594e+02 1.35011744499207e+00 533 
6.43990625000000e+03 1.71106518554688e+03 1.21559476852417e+00 534 
3.34042529296875e+03 1.81842309570312e+03 1.33800458908081e+00 535 
3.47796801757812e+03 2.64042285156250e+03 1.21016335487366e+00 536 
1.25792602539062e+03 3.46370312500000e+03 1.32160913944244e+00 537 
8.65889550781250e+03 4.94810302734375e+03 1.32749986648560e+00 538 
7.73502880859375e+03 5.01742382812500e+03 1.31572556495667e+00 539 
5.86384228515625e+03 5.32459667968750e+03 1.18763124942780e+00 540 
3.28574267578125e+03 5.81561962890625e+03 1.13576197624207e+00 541 
7.63441943359375e+03 6.03984033203125e+03 1.02920246124268e+00 542 
7.18420068359375e+03 6.60452832031250e+03 1.27425003051758e+00 543 
5.49961767578125e+03 7.75470507812500e+03 1.33334946632385e+00 544 
9.31413330078125e+02 1.65776440429688e+03 1.56906664371490e+00 545 
1.48301440429688e+03 1.69495251464844e+03 1.49014234542847e+00 546 
4.98404980468750e+03 2.57180834960938e+03 1.79391324520111e+00 547 
8.51843945312500e+03 3.24225561523438e+03 1.53301346302032e+00 548 
8.71052539062500e+03 3.96607006835938e+03 1.65939259529114e+00 549 
7.58028125000000e+03 4.25886083984375e+03 1.78160834312439e+00 550 
8.24989257812500e+03 5.72303466796875e+03 1.59874081611633e+00 551 
5.20012451171875e+03 6.74685595703125e+03 1.75078582763672e+00 552 
1.41379858398438e+03 6.82999609375000e+03 1.71532046794891e+00 553 
7.49965869140625e+03 7.03254199218750e+03 1.73142623901367e+00 554 
9.28271972656250e+02 7.89256250000000e+03 1.55203306674957e+00 555 
6.71343359375000e+03 1.34648742675781e+03 1.25112962722778e+00 556 
7.69546289062500e+03 3.06115405273438e+03 1.33475816249847e+00 557 
6.48591162109375e+03 6.64760791015625e+03 3.40860223770142e+00 558 
6.61785791015625e+03 1.30700512695312e+03 2.18628478050232e+00 559 
2.21538223266602e+02 2.25989990234375e+03 1.97398316860199e+00 560 
7.43310400390625e+03 2.88957373046875e+03 2.01687550544739e+00 561 
6.07632324218750e+03 3.17859106445312e+03 2.29618549346924e+00 562 
5.27133447265625e+03 3.45857885742188e+03 2.38166737556458e+00 563 
3.88225439453125e+03 4.15815136718750e+03 2.19108796119690e+00 564 
2.02962255859375e+03 5.20012939453125e+03 2.82976770401001e+00 565 
3.33324731445312e+03 5.25304296875000e+03 1.84536266326904e+00 566 
2.30762817382812e+03 6.21365136718750e+03 1.84671652317047e+00 567 
8.78564575195312e+02 7.00846972656250e+03 2.30278277397156e+00 568 
3.34845581054688e+03 8.26574023437500e+03 1.94435036182404e+00 569 
8.55610253906250e+03 3.24943188476562e+03 3.44640827178955e+00 570 
1.33452221679688e+03 3.70316479492188e+03 3.05062365531921e+00 571 
7.41531787109375e+03 6.78218896484375e+03 2.98229050636292e+00 572 
1.47658557128906e+03 7.39785156250000e+01 1.83618044853210e+00 573 
3.79452636718750e+03 2.05099072265625e+03 2.74400448799133e+00 574 
7.82634814453125e+03 2.16272192382812e+03 2.63570308685303e+00 575 
8.01526855468750e+02 2.90166137695312e+03 2.41407775878906e+00 576 
6.21219238281250e+03 4.12183886718750e+03 2.63329911231995e+00 577 
4.98554394531250e+03 5.17833740234375e+03 2.66504025459290e+00 578 
7.88235156250000e+03 7.36945068359375e+03 1.84940779209137e+00 579 
5.92967089843750e+03 1.05604257812500e+04 1.84602236747742e+00 580 
5.51394628906250e+03 1.04776318359375e+03 2.24092268943787e+00 581 
5.00777392578125e+03 1.32854882812500e+03 2.56116914749146e+00 582 
4.12228320312500e+03 1.94578796386719e+03 2.46724390983582e+00 583 
8.07273974609375e+03 3.01481469726562e+03 2.48288178443909e+00 584 
7.66914990234375e+03 4.17846777343750e+03 2.58499622344971e+00 585 
8.53211132812500e+03 4.81248681640625e+03 2.10680174827576e+00 586 
6.96700732421875e+03 4.89404882812500e+03 2.34941840171814e+00 587 
4.28836865234375e+03 5.00596582031250e+03 1.68649601936340e+00 588 
3.01031347656250e+03 7.69024804687500e+03 1.91581106185913e+00 589 
7.57019140625000e+03 1.96707958984375e+03 3.22596335411072e+00 590 
6.06407080078125e+03 7.53714794921875e+03 1.10451376438141e+00 591 
7.33265380859375e+02 6.46636276245117e+01 1.55354213714600e+00 592 
1.51706799316406e+03 2.52333816528320e+02 1.70421552658081e+00 593 
6.15636523437500e+03 2.61143798828125e+02 1.42539393901825e+00 594 
7.73207861328125e+03 1.88873791503906e+03 1.64579761028290e+00 595 
2.92985156250000e+03 3.62106518554688e+03 1.46065950393677e+00 596 
8.78254785156250e+03 5.17183447265625e+03 1.56077170372009e+00 597 
1.98531726074219e+03 5.32681689453125e+03 1.50084578990936e+00 598 
2.73055615234375e+03 5.92571435546875e+03 1.64669561386108e+00 599 
6.01166406250000e+03 8.02561376953125e+03 1.72782063484192e+00 600 
8.21237695312500e+03 3.74315338134766e+02 1.39742290973663e+00 601 
8.67995605468750e+02 1.33186303710938e+03 1.33941161632538e+00 602 
8.46902343750000e+03 1.36853869628906e+03 9.97144341468811e-01 603 
7.48323339843750e+03 2.83430126953125e+03 1.20565009117126e+00 604 
7.79652526855469e+02 3.02413793945312e+03 1.15011191368103e+00 605 
1.76174121093750e+03 3.62981542968750e+03 1.31992590427399e+00 606 
8.12652783203125e+03 3.76313110351562e+03 1.31622087955475e+00 607 
6.38605810546875e+03 4.57371093750000e+03 9.09040331840515e-01 608 
3.79932275390625e+03 4.87648144531250e+03 1.35548341274261e+00 609 
8.38470019531250e+03 4.97800244140625e+03 1.41391837596893e+00 610 
4.29249218750000e+03 4.99419531250000e+03 9.77886319160461e-01 611 
5.78647119140625e+03 6.27937207031250e+03 1.14607489109039e+00 612 
6.75375488281250e+02 2.64377365112305e+01 1.64976620674133e+00 613 
6.70855102539062e+02 2.69792297363281e+02 1.51668548583984e+00 614 
6.74235107421875e+03 1.63305065917969e+03 1.52403259277344e+00 615 
7.73187109375000e+03 1.89332653808594e+03 1.74841845035553e+00 616 
7.51751708984375e+03 1.98913879394531e+03 1.69371080398560e+00 617 
6.00505224609375e+03 2.12301318359375e+03 1.69738864898682e+00 618 
6.90929003906250e+03 4.04658520507812e+03 1.53431093692780e+00 619 
4.08639575195312e+03 4.35548925781250e+03 1.58225238323212e+00 620 
6.93061279296875e+03 4.40197802734375e+03 1.70941603183746e+00 621 
8.47335839843750e+03 4.58296923828125e+03 1.69277334213257e+00 622 
7.56468212890625e+03 6.14679394531250e+03 1.65524089336395e+00 623 
3.74883911132812e+03 1.20073547363281e+02 1.04314231872559e+00 624 
5.42442089843750e+03 4.59848571777344e+02 1.37375104427338e+00 625 
1.56159338378906e+03 8.55452880859375e+02 1.43152463436127e+00 626 
2.92931213378906e+02 9.77179504394531e+02 1.35685646533966e+00 627 
4.48819677734375e+03 1.51644299316406e+03 1.32366180419922e+00 628 
3.52333813476562e+03 1.67956005859375e+03 1.33612489700317e+00 629 
4.50209277343750e+03 3.18641918945312e+03 1.32907390594482e+00 630 
8.71208593750000e+03 3.83982617187500e+03 1.04901897907257e+00 631 
3.79339916992188e+03 4.82267773437500e+03 1.01072657108307e+00 632 
8.63074707031250e+03 4.88647021484375e+03 1.33387100696564e+00 633 
3.28521875000000e+03 5.81946289062500e+03 1.15011143684387e+00 634 
8.13698779296875e+03 6.20651220703125e+03 1.40257263183594e+00 635 
8.72177929687500e+03 6.30606250000000e+03 1.14374470710754e+00 636 
1.70734863281250e+03 8.19184423828125e+03 1.22554743289948e+00 637 
7.57241064453125e+03 1.39486587524414e+02 1.60564267635345e+00 638 
1.73104846191406e+03 4.93573425292969e+02 1.47908377647400e+00 639 
3.85639990234375e+03 9.70738281250000e+02 1.78289651870728e+00 640 
7.20991357421875e+03 2.11062988281250e+03 1.47978866100311e+00 641 
7.01919970703125e+03 4.17109521484375e+03 1.59846329689026e+00 642 
4.28834228515625e+03 5.00596386718750e+03 1.65635418891907e+00 643 
7.10861376953125e+03 6.20386230468750e+03 1.52165961265564e+00 644 
2.26085595703125e+03 1.79627978515625e+03 3.44274401664734e+00 645 
6.42838623046875e+03 6.78496777343750e+03 3.30694985389709e+00 646 
8.20879980468750e+03 7.87154345703125e+03 3.31711101531982e+00 647 
5.53099316406250e+03 9.20957580566406e+02 3.76684784889221e+00 648 
4.90779589843750e+03 2.58013574218750e+03 4.94310808181763e+00 649 
4.41193267822266e+02 7.94532666015625e+03 4.12860012054443e+00 650 
5.86559765625000e+03 2.73040698242188e+03 4.68608331680298e+00 651 
8.18733642578125e+03 4.22877880859375e+03 4.81302785873413e+00 652 
9.56294677734375e+02 6.68262060546875e+03 3.99619770050049e+00 653 
8.54295507812500e+03 7.38668359375000e+03 4.74921131134033e+00 654 
1.68529138183594e+03 7.82886718750000e+03 3.97600197792053e+00 655 
7.42431201171875e+03 2.84516143798828e+02 3.71251440048218e+00 656 
6.66291796875000e+03 4.41884948730469e+02 4.28922653198242e+00 657 
8.51165039062500e+03 2.13387207031250e+03 4.51229238510132e+00 658 
8.52451464843750e+03 2.13508032226562e+03 4.82333374023438e+00 659 
6.17965527343750e+03 3.60854785156250e+03 3.80567955970764e+00 660 
1.70949609375000e+03 7.79075390625000e+03 3.93681359291077e+00 661 
4.30068505859375e+03 7.89287695312500e+03 6.55931854248047e+00 662 
8.86940856933594e+02 1.12302221679688e+03 5.13856172561646e+00 663 
8.52993261718750e+03 2.66651538085938e+03 4.84289455413818e+00 664 
8.44168273925781e+02 6.49170654296875e+03 5.56732463836670e+00 665 
4.92567089843750e+03 6.98668652343750e+03 4.57477998733521e+00 666 
8.48860058593750e+03 7.46483398437500e+03 6.15562105178833e+00 667 
1.10761047363281e+03 9.15667724609375e+02 4.82714653015137e+00 668 
1.07931750488281e+03 1.01504400634766e+03 4.59245347976685e+00 669 
8.28370703125000e+03 2.75123828125000e+03 5.59598636627197e+00 670 
1.76227661132812e+03 7.70860986328125e+03 4.22278261184692e+00 671 
6.98479394531250e+03 7.90160791015625e+03 3.96830749511719e+00 672 
1.33593371582031e+03 4.37234521484375e+03 4.02023744583130e+00 673 
7.14230224609375e+03 7.80103857421875e+03 4.48334121704102e+00 674 
2.46981445312500e+03 8.07514160156250e+03 4.06452655792236e+00 675 
1.31068688964844e+03 5.07603271484375e+02 6.30844116210938e+00 676 
1.68285083007812e+03 1.35551025390625e+03 1.18942809104919e+00 677 
7.65914013671875e+03 1.37901831054688e+03 1.08714866638184e+00 678 
6.58103955078125e+03 1.94317883300781e+03 1.09883964061737e+00 679 
5.41861621093750e+03 4.58714501953125e+03 1.31805717945099e+00 680 
4.28453857421875e+03 4.85565039062500e+03 1.36681377887726e+00 681 
5.09959814453125e+03 4.95784619140625e+03 1.15370440483093e+00 682 
6.44481640625000e+03 5.25815380859375e+03 1.11002671718597e+00 683 
8.22336328125000e+03 5.55502880859375e+03 1.33426833152771e+00 684 
7.19259667968750e+03 5.99645605468750e+03 1.07775735855103e+00 685 
7.50598242187500e+03 6.03579052734375e+03 1.11203742027283e+00 686 
8.30684960937500e+03 6.35080712890625e+03 1.28359842300415e+00 687 
8.05525585937500e+03 6.75902978515625e+03 1.34780633449554e+00 688 
7.71080029296875e+03 7.19104052734375e+03 1.30737376213074e+00 689 
5.07663476562500e+03 8.16828173828125e+03 1.38921761512756e+00 690 
7.25820605468750e+03 5.07459167480469e+02 1.67096245288849e+00 691 
2.12894775390625e+03 2.04900366210938e+03 1.70476245880127e+00 692 
1.23383569335938e+03 4.22722216796875e+03 1.59520053863525e+00 693 
2.76317822265625e+03 5.88438769531250e+03 1.54097604751587e+00 694 
6.59146435546875e+03 1.47984497070312e+03 1.16239607334137e+00 695 
6.86532177734375e+03 3.02618652343750e+03 1.17988491058350e+00 696 
7.13660107421875e+03 3.07917675781250e+03 1.07398033142090e+00 697 
3.13658666992188e+03 3.46494580078125e+03 1.13940155506134e+00 698 
6.02642480468750e+03 3.59823413085938e+03 9.73811209201813e-01 699 
5.55993945312500e+03 4.33340527343750e+03 1.29756379127502e+00 700 
3.87342211914062e+03 4.81937207031250e+03 1.05098795890808e+00 701 
4.86272949218750e+03 4.87420703125000e+03 1.34767639636993e+00 702 
8.63443359375000e+03 4.91383251953125e+03 1.18289899826050e+00 703 
6.57676318359375e+03 5.50880957031250e+03 1.34204638004303e+00 704 
4.63106201171875e+02 6.73021533203125e+03 1.11309182643890e+00 705 
2.45823876953125e+03 1.02133804321289e+02 1.47994256019592e+00 706 
2.58582031250000e+02 1.07993444824219e+03 1.46634173393250e+00 707 
7.52425878906250e+03 1.67607153320312e+03 1.58082687854767e+00 708 
4.36828417968750e+03 2.81248217773438e+03 1.68084001541138e+00 709 
7.55153027343750e+03 3.96430883789062e+03 1.42243885993958e+00 710 
8.03380810546875e+03 4.05058398437500e+03 1.42242276668549e+00 711 
2.00813159179688e+03 5.12811230468750e+03 1.47725594043732e+00 712 
7.45094628906250e+03 6.30479199218750e+03 1.44241106510162e+00 713 
2.20792553710938e+03 6.47884570312500e+03 1.75014138221741e+00 714 
6.91645117187500e+03 1.27584697265625e+04 1.50258088111877e+00 715 
7.26802392578125e+03 1.65419006347656e+03 1.02580332756042e+00 716 
3.25954467773438e+03 3.40590429687500e+03 1.36190807819366e+00 717 
6.93035742187500e+03 3.56948315429688e+03 1.35616159439087e+00 718 
8.12827392578125e+03 3.73294921875000e+03 1.32039272785187e+00 719 
6.17286572265625e+03 4.06593286132812e+03 1.13930821418762e+00 720 
2.71625341796875e+03 4.39323144531250e+03 1.24924445152283e+00 721 
5.38688720703125e+03 4.53975048828125e+03 1.34079873561859e+00 722 
6.36123193359375e+03 4.67223535156250e+03 1.20972454547882e+00 723 
3.87442944335938e+03 4.82630517578125e+03 1.16261339187622e+00 724 
5.99898388671875e+03 5.21355566406250e+03 1.26587986946106e+00 725 
7.65197656250000e+03 5.43252783203125e+03 1.31887137889862e+00 726 
4.48119970703125e+03 5.81650097656250e+03 1.36230862140656e+00 727 
6.06607275390625e+03 6.08518359375000e+03 1.02580761909485e+00 728 
8.55472070312500e+03 4.11733789062500e+03 1.37325990200043e+00 729 
6.59292041015625e+03 5.50466699218750e+03 1.29303717613220e+00 730 
6.70607519531250e+03 5.85208056640625e+03 1.02028787136078e+00 731 
5.87335058593750e+03 6.06539355468750e+03 1.15725624561310e+00 732 
5.78101464843750e+03 6.27917822265625e+03 1.25829529762268e+00 733 
7.08107226562500e+03 6.32194091796875e+03 9.27903354167938e-01 734 
3.04809545898438e+03 7.27462695312500e+03 1.33433771133423e+00 735 
1.75738244628906e+03 4.12181182861328e+02 1.44344949722290e+00 736 
3.44457519531250e+02 2.62337084960938e+03 1.72380590438843e+00 737 
2.59082861328125e+03 3.11705297851562e+03 1.60467994213104e+00 738 
5.44775537109375e+03 6.19004150390625e+03 1.73038351535797e+00 739 
4.14950439453125e+03 6.63584521484375e+03 1.78233957290649e+00 740 
4.31277246093750e+03 4.87143890380859e+02 2.42897248268127e+00 741 
6.72665966796875e+03 1.34251770019531e+03 2.21083641052246e+00 742 
1.40552661132812e+03 1.51912609863281e+03 1.99395489692688e+00 743 
4.78173193359375e+03 1.57066552734375e+03 2.01305961608887e+00 744 
6.73068994140625e+03 1.64664196777344e+03 1.91358935832977e+00 745 
7.80575244140625e+03 2.98163940429688e+03 2.23227095603943e+00 746 
7.41806640625000e+03 4.39629492187500e+03 2.46772885322571e+00 747 
6.95231933593750e+03 4.91174707031250e+03 2.43280363082886e+00 748 
2.93532983398438e+03 5.48746484375000e+03 2.50357580184937e+00 749 
8.00106005859375e+03 6.08717236328125e+03 2.35752367973328e+00 750 
7.91257031250000e+03 6.89276611328125e+03 2.68011403083801e+00 751 
1.47923217773438e+03 7.28067285156250e+03 2.11013436317444e+00 752 
8.18355371093750e+03 7.38907128906250e+03 2.27539587020874e+00 753 
3.01041015625000e+03 1.08126110839844e+03 2.90101170539856e+00 754 
2.75979394531250e+03 2.33657739257812e+03 3.32101154327393e+00 755 
5.06057324218750e+03 3.62609802246094e+02 2.43515443801880e+00 756 
8.10821337890625e+03 1.46325183105469e+03 2.03221273422241e+00 757 
6.68497216796875e+03 1.51304626464844e+03 2.35856842994690e+00 758 
3.88147509765625e+03 4.16770605468750e+03 2.63424730300903e+00 759 
6.30583886718750e+03 4.69258203125000e+03 2.07204937934875e+00 760 
1.18869885253906e+03 4.79790478515625e+03 2.16039037704468e+00 761 
5.19148046875000e+03 4.84312109375000e+03 2.01885557174683e+00 762 
7.14277392578125e+03 7.28942041015625e+03 2.10271883010864e+00 763 
4.15965527343750e+03 1.82457543945312e+03 2.86374521255493e+00 764 
2.57240429687500e+03 2.03312756347656e+03 2.91244673728943e+00 765 
8.64289160156250e+03 2.27663574218750e+03 2.99726104736328e+00 766 
3.94537887573242e+01 2.45036328125000e+03 3.15032649040222e+00 767 
3.64103790283203e+02 7.84534326171875e+03 6.46212816238403e+00 768 
4.48992614746094e+02 8.32137402343750e+03 6.28963994979858e+00 769 
6.74295507812500e+03 8.20134094238281e+02 4.07467651367188e+00 770 
8.67901171875000e+03 3.14614916992188e+03 5.16239929199219e+00 771 
8.47639648437500e+03 7.47985107421875e+03 4.86085605621338e+00 772 
1.73790942382812e+03 7.74636035156250e+03 4.13664674758911e+00 773 
7.41591210937500e+03 6.54277001953125e+03 4.74129819869995e+00 774 
8.76065136718750e+03 6.96099951171875e+03 4.31869029998779e+00 775 
7.52509912109375e+03 1.99673864746094e+03 6.81176853179932e+00 776 
8.70026562500000e+03 3.28570385742188e+03 6.74082994461060e+00 777 
6.16240039062500e+03 1.09486250000000e+04 6.18804359436035e+00 778 
3.56649291992188e+03 6.68517480468750e+03 9.02179431915283e+00 779 
8.27860058593750e+03 4.39442138671875e+03 9.02728176116943e+00 780 
5.31009338378906e+02 6.54905175781250e+03 9.09938430786133e+00 781 
8.26154589843750e+03 4.36812060546875e+03 8.25572204589844e+00 782 
7.53067016601562e+02 8.31647070312500e+03 7.21453380584717e+00 783 
2.71277856445312e+03 7.02063134765625e+03 9.09729766845703e+00 784 
3.99213012695312e+02 6.47740185546875e+03 3.19506382942200e+00 785 
7.00180859375000e+03 7.09818750000000e+03 3.37929010391235e+00 786 
1.03935717773438e+03 7.11368798828125e+03 3.42502379417419e+00 787 
8.58392675781250e+03 7.33030419921875e+03 2.94718742370605e+00 788 
2.63017456054688e+03 1.83199487304688e+03 2.82265996932983e+00 789 
4.12280908203125e+03 2.46103271484375e+03 2.12976145744324e+00 790 
7.50102246093750e+03 2.85938232421875e+03 2.12846994400024e+00 791 
2.54652954101562e+03 3.08162915039062e+03 2.21861791610718e+00 792 
6.25050000000000e+03 3.65203759765625e+03 2.09590101242065e+00 793 
8.80177539062500e+03 4.44111621093750e+03 2.54381489753723e+00 794 
6.95975537109375e+03 4.63462988281250e+03 2.59271025657654e+00 795 
8.59933984375000e+03 4.83561572265625e+03 2.49132251739502e+00 796 
6.98196728515625e+03 7.13986376953125e+03 1.94900369644165e+00 797 
2.59575463867188e+03 2.81926635742188e+03 2.18679189682007e+00 798 
7.38612939453125e+03 4.34598193359375e+03 2.65182399749756e+00 799 
7.64568017578125e+03 4.76897363281250e+03 1.99670052528381e+00 800 
6.94622460937500e+03 4.82597070312500e+03 2.36738133430481e+00 801 
1.73224816894531e+03 6.88664160156250e+03 2.55193948745728e+00 802 
2.01550024414062e+03 6.90394873046875e+03 2.54320955276489e+00 803 
7.82843701171875e+03 6.90211328125000e+03 1.86610949039459e+00 804 
8.82653027343750e+03 7.01696972656250e+03 1.64652049541473e+00 805 
8.70480468750000e+03 7.76627978515625e+03 2.12612748146057e+00 806 
4.92373730468750e+03 2.44414257812500e+03 3.28697419166565e+00 807 
3.52226855468750e+03 3.74600488281250e+03 3.33444738388062e+00 808 
4.42821533203125e+03 5.86735791015625e+03 3.60679125785828e+00 809 
8.01256201171875e+03 6.07971679687500e+03 3.40706992149353e+00 810 
8.21760546875000e+03 7.84544775390625e+03 3.43595361709595e+00 811 
4.27865333557129e+01 4.81231384277344e+02 2.53575849533081e+00 812 
8.20706835937500e+03 4.81340606689453e+02 2.38446903228760e+00 813 
4.29468652343750e+03 5.43385681152344e+02 2.31702327728271e+00 814 
5.91612304687500e+03 6.39711425781250e+02 2.43994140625000e+00 815 
6.26240039062500e+03 1.76419543457031e+03 1.97236561775208e+00 816 
7.24275781250000e+03 1.96725903320312e+03 2.79674100875854e+00 817 
3.14873138427734e+02 2.03291833496094e+03 2.02034664154053e+00 818 
4.92715869140625e+03 3.27793310546875e+03 2.24941825866699e+00 819 
6.18448632812500e+03 3.62551660156250e+03 2.57701015472412e+00 820 
7.26483691406250e+03 5.05107958984375e+03 1.92243504524231e+00 821 
2.35593414306641e+02 5.29081787109375e+03 2.82751441001892e+00 822 
4.82272363281250e+03 5.87135986328125e+03 1.93423902988434e+00 823 
5.64840283203125e+03 7.32404199218750e+03 1.81297993659973e+00 824 
8.02337207031250e+03 7.61357861328125e+03 2.43114566802979e+00 825 
7.45465332031250e+03 7.76538134765625e+03 2.18172812461853e+00 826 
8.50196582031250e+03 1.56640246582031e+03 3.06745576858521e+00 827 
6.10246679687500e+03 7.54932714843750e+03 1.64596652984619e+00 828 
7.81754833984375e+03 1.26024047851562e+03 1.21044683456421e+00 829 
2.93103857421875e+03 2.43674462890625e+03 1.22603297233582e+00 830 
3.00558813476562e+03 5.72099804687500e+03 1.40813004970551e+00 831 
2.90407324218750e+03 5.96098437500000e+03 1.24934208393097e+00 832 
