ply
format ascii 1.0
element vertex 700
property double x
property double y
property double size
property short id
end_header
8.66479199218750e+03 1.15995739746094e+03 1.67396044731140e+00 268 
8.76174121093750e+03 6.94783203125000e+03 1.68222367763519e+00 276 
8.30766601562500e+03 4.73554101562500e+03 1.29136240482330e+00 277 
7.54903222656250e+03 3.05757739257812e+03 1.45284116268158e+00 279 
7.54057031250000e+03 4.91379150390625e+02 1.51991498470306e+00 281 
5.66808642578125e+03 3.00179931640625e+03 1.31300985813141e+00 285 
7.13761425781250e+03 2.78929003906250e+03 1.19100284576416e+00 286 
7.90555908203125e+03 5.76463134765625e+03 1.87854552268982e+00 292 
8.75172265625000e+03 4.13576171875000e+03 1.61220633983612e+00 293 
5.33738183593750e+03 2.17234472656250e+03 1.31939017772675e+00 295 
5.12265380859375e+03 7.53837158203125e+03 2.44409275054932e+00 298 
5.34545166015625e+03 7.03218896484375e+03 2.03537344932556e+00 300 
7.05772900390625e+03 6.47560107421875e+03 2.44442224502563e+00 301 
8.42452832031250e+03 5.51292089843750e+03 2.38909626007080e+00 302 
5.29130126953125e+03 4.11858593750000e+03 2.02943468093872e+00 303 
5.45545703125000e+03 2.68375073242188e+03 1.34262096881866e+00 304 
7.23984912109375e+03 2.01172985839844e+03 2.49599957466125e+00 305 
5.65013916015625e+03 9.76669311523438e+02 1.80706477165222e+00 307 
6.11381201171875e+03 3.02615936279297e+02 2.47786450386047e+00 308 
6.88073193359375e+03 8.22711425781250e+03 3.45385837554932e+00 309 
7.08139746093750e+03 4.89596337890625e+03 3.25309896469116e+00 310 
7.88640234375000e+03 4.55630126953125e+03 2.89264726638794e+00 312 
6.65980761718750e+03 4.15733447265625e+03 3.39381098747253e+00 313 
5.60650830078125e+03 6.37399780273438e+02 3.04723358154297e+00 314 
5.72493652343750e+03 4.88252929687500e+03 2.23861670494080e+00 318 
6.01294189453125e+03 6.46283886718750e+03 5.02234554290771e+00 324 
7.47288134765625e+03 4.09427581787109e+02 6.86277151107788e+00 326 
7.42164306640625e+03 3.78626831054688e+02 8.61544895172119e+00 331 
6.80887939453125e+03 1.69153540039062e+03 6.10236406326294e+00 333 
6.71689794921875e+03 1.79442687988281e+03 1.28403825759888e+01 335 
8.63351074218750e+03 9.69475646972656e+02 9.00782299041748e+00 337 
8.67659472656250e+03 1.18471850585938e+03 9.75130748748779e+00 339 
6.31990820312500e+03 5.81159130859375e+03 8.50649547576904e+00 340 
8.43656250000000e+03 1.89180322265625e+03 2.54660396575928e+01 342 
8.16397363281250e+03 1.78902795410156e+03 1.55842523574829e+01 344 
8.81519042968750e+03 7.33736328125000e+03 1.79208445549011e+00 350 
7.82294287109375e+03 5.75050585937500e+03 2.71514058113098e+00 351 
6.82226220703125e+03 5.22877539062500e+03 2.35013389587402e+00 352 
6.58665576171875e+03 3.92843798828125e+03 2.65539050102234e+00 353 
6.70074511718750e+03 6.61810607910156e+02 2.28188776969910e+00 358 
7.41776171875000e+03 2.45915847778320e+02 2.02090406417847e+00 359 
6.06876318359375e+03 4.82362988281250e+03 3.20951223373413e+00 361 
7.97593505859375e+03 4.34671386718750e+03 3.23819351196289e+00 362 
5.14557421875000e+03 4.54019287109375e+03 2.08117818832397e+00 368 
7.28124072265625e+03 3.01141601562500e+02 2.92421960830688e+00 373 
5.12911376953125e+03 6.38815136718750e+03 2.88079595565796e+00 375 
7.73806640625000e+03 6.17412792968750e+03 2.07508635520935e+00 376 
5.73570361328125e+03 4.88536328125000e+03 1.98528540134430e+00 378 
7.57081152343750e+03 4.46823291015625e+03 1.96370196342468e+00 379 
6.10596728515625e+03 2.93512695312500e+02 2.61250805854797e+00 386 
3.24923095703125e+03 1.16783239746094e+03 1.69090962409973e+00 387 
3.07049462890625e+03 6.60426025390625e+03 1.34746563434601e+00 388 
8.16641992187500e+03 6.29842041015625e+03 1.61640310287476e+00 389 
8.09262353515625e+03 5.44612451171875e+03 1.49445104598999e+00 390 
7.07458984375000e+03 4.91190039062500e+03 1.46086692810059e+00 391 
6.13351611328125e+03 3.53811035156250e+03 1.72691404819489e+00 392 
4.94444433593750e+03 1.81156787109375e+03 1.55588054656982e+00 393 
4.80479589843750e+03 1.64588610839844e+03 1.39942479133606e+00 394 
6.63680517578125e+03 6.62092480468750e+03 1.11504685878754e+00 396 
3.23226000976562e+03 6.70457861328125e+03 1.55796182155609e+00 397 
7.45138378906250e+03 1.14336193847656e+03 2.31280589103699e+00 404 
2.67261718750000e+03 5.88273242187500e+03 2.05530524253845e+00 405 
6.28815771484375e+03 5.66140234375000e+03 3.01935148239136e+00 409 
5.27374853515625e+03 8.62791870117188e+02 3.00202131271362e+00 410 
7.18018066406250e+03 7.78280908203125e+03 3.08583116531372e+00 413 
2.68872973632812e+03 4.74495751953125e+03 3.21814370155334e+00 414 
2.61240209960938e+03 4.72168505859375e+03 2.99646759033203e+00 415 
3.12531958007812e+03 8.13285498046875e+03 1.56855154037476e+00 416 
7.33046484375000e+03 4.39338769531250e+03 1.46540260314941e+00 417 
8.09705273437500e+03 3.54968139648438e+03 1.53332436084747e+00 418 
3.08993579101562e+03 2.05031372070312e+03 1.63479423522949e+00 419 
6.84185986328125e+03 1.71262512207031e+02 1.57404172420502e+00 420 
4.61167529296875e+03 6.17866796875000e+03 1.23092138767242e+00 424 
4.24131689453125e+03 3.98146801757812e+03 1.46207034587860e+00 425 
3.64379028320312e+03 7.63793017578125e+03 1.21950125694275e+00 428 
8.53990917968750e+03 3.89446411132812e+03 1.75620245933533e+00 430 
3.03019335937500e+03 6.59321533203125e+03 1.12284243106842e+00 434 
4.62368115234375e+03 6.18615136718750e+03 1.34964525699615e+00 435 
5.20941503906250e+03 6.05402001953125e+03 1.57376801967621e+00 436 
4.51914453125000e+03 6.33060888671875e+03 2.79828214645386e+00 437 
2.64583740234375e+03 4.61795068359375e+03 3.72165703773499e+00 438 
5.09198388671875e+03 4.76993469238281e+02 5.65267181396484e+00 439 
4.62493896484375e+03 2.66464904785156e+02 3.83735227584839e+00 440 
3.28215014648438e+03 4.57906640625000e+03 5.99415826797485e+00 444 
7.05723974609375e+03 7.00080664062500e+03 6.27884006500244e+00 446 
7.34818017578125e+03 5.92018603515625e+03 1.46417582035065e+00 449 
6.02973681640625e+03 7.73765673828125e+03 1.50797259807587e+00 451 
4.37908740234375e+03 6.68181787109375e+03 1.82370138168335e+00 452 
3.47965649414062e+03 6.85761621093750e+03 1.31861901283264e+00 453 
5.42160937500000e+03 7.07172949218750e+03 1.64829301834106e+00 454 
7.96385400390625e+03 4.45386718750000e+03 1.21796345710754e+00 455 
3.48649365234375e+03 6.85771191406250e+03 1.58446812629700e+00 457 
8.82998632812500e+03 5.37696142578125e+03 1.84624469280243e+00 459 
5.01051318359375e+03 1.94248022460938e+03 1.28459119796753e+00 460 
8.63934863281250e+03 2.80790478515625e+03 1.29523515701294e+00 463 
2.68072753906250e+03 7.71449414062500e+03 1.33400642871857e+00 464 
3.26903613281250e+03 2.14592773437500e+03 1.62827992439270e+00 466 
7.49005273437500e+03 6.51946972656250e+03 2.66130089759827e+00 467 
6.60704492187500e+03 4.58400488281250e+03 1.91310441493988e+00 471 
5.86592187500000e+03 1.65777270507812e+03 1.71199536323547e+00 472 
4.57225927734375e+03 5.24863378906250e+03 3.17073154449463e+00 475 
4.70754199218750e+03 4.26647412109375e+03 1.56371426582336e+00 477 
4.14019970703125e+03 4.52329101562500e+03 3.95154619216919e+00 479 
5.86887548828125e+03 4.89148144531250e+03 3.49040651321411e+00 481 
8.00912060546875e+03 8.39721972656250e+03 1.51740431785583e+00 484 
2.87933056640625e+03 7.52206738281250e+03 2.93567609786987e+00 485 
7.68863378906250e+03 7.32778515625000e+03 2.22284126281738e+00 486 
3.32889794921875e+03 5.16141796875000e+03 2.20092320442200e+00 487 
6.64554736328125e+03 2.09397460937500e+03 2.87778282165527e+00 488 
7.43665039062500e+03 7.25751318359375e+03 3.27172160148621e+00 490 
3.05175683593750e+03 1.06857153320312e+03 3.75095510482788e+00 491 
3.86391430664062e+03 5.57120544433594e+02 3.47117114067078e+00 492 
6.22750976562500e+03 5.19768408203125e+03 2.32673168182373e+00 495 
8.83048828125000e+03 5.37668701171875e+03 1.96989965438843e+00 496 
6.68323876953125e+03 3.24678686523438e+03 2.09294271469116e+00 498 
5.39986083984375e+03 1.74960119628906e+03 2.86165547370911e+00 499 
7.69679052734375e+03 2.07242529296875e+03 2.15998482704163e+00 502 
7.27810351562500e+03 8.26078125000000e+03 1.30248987674713e+00 504 
4.25644628906250e+03 5.00888378906250e+03 1.03342056274414e+00 505 
4.83884277343750e+03 4.86976708984375e+03 1.19898784160614e+00 506 
3.38038549804688e+03 3.96463281250000e+03 1.15304708480835e+00 508 
2.99520971679688e+03 2.05150610351562e+03 1.25190544128418e+00 511 
6.99436865234375e+03 2.41196191406250e+03 1.17312347888947e+00 512 
8.59035156250000e+03 8.02152197265625e+03 1.47959482669830e+00 515 
2.58703125000000e+03 7.20828564453125e+03 1.37698602676392e+00 516 
4.09945410156250e+03 7.09471191406250e+03 1.47767555713654e+00 517 
7.27030078125000e+03 7.40343017578125e+03 1.71783554553986e+00 518 
7.85848193359375e+03 7.51393554687500e+03 1.44913876056671e+00 519 
4.92382714843750e+03 4.45256884765625e+03 1.29674994945526e+00 522 
4.54458740234375e+03 3.67027709960938e+03 1.64393484592438e+00 523 
3.62139721679688e+03 2.70944726562500e+03 1.61559009552002e+00 524 
4.00704418945312e+03 2.54149877929688e+03 1.63748919963837e+00 526 
4.00487329101562e+03 2.52186083984375e+03 1.23338353633881e+00 527 
2.93073657226562e+03 7.39770947265625e+03 1.30302631855011e+00 533 
7.85149560546875e+03 6.64673291015625e+03 1.36647832393646e+00 535 
7.82429833984375e+03 5.76017529296875e+03 1.04819786548615e+00 536 
2.89419018554688e+03 2.89986254882812e+03 1.25044345855713e+00 538 
5.70893603515625e+03 2.83992724609375e+03 1.04554951190948e+00 540 
8.33530371093750e+03 2.63063696289062e+03 9.87212717533112e-01 541 
6.33479345703125e+03 4.43802947998047e+02 1.20738768577576e+00 544 
6.26080908203125e+03 5.65128271484375e+03 1.64150691032410e+00 547 
2.82404516601562e+03 4.66842285156250e+03 1.60400545597076e+00 548 
2.70944824218750e+03 3.92816406250000e+03 1.64125907421112e+00 549 
6.50389599609375e+03 1.52518237304688e+03 1.62094104290009e+00 552 
4.44511962890625e+03 6.71075488281250e+03 1.22816812992096e+00 556 
5.21105517578125e+03 1.48822106933594e+03 3.31266474723816e+00 558 
4.53717333984375e+03 6.75924560546875e+03 2.08586978912354e+00 559 
3.88261596679688e+03 5.10723291015625e+03 2.04495763778687e+00 561 
5.25316845703125e+03 4.99042138671875e+03 1.76250910758972e+00 562 
7.55248632812500e+03 4.24628173828125e+03 2.08469629287720e+00 564 
8.23505859375000e+03 3.17611572265625e+03 1.80608224868774e+00 566 
2.78867578125000e+03 4.65579492187500e+03 3.01765966415405e+00 570 
7.41483398437500e+03 6.37392089843750e+03 2.69580006599426e+00 574 
3.40716406250000e+03 5.80581933593750e+03 2.42570972442627e+00 575 
5.21680078125000e+03 4.03640722656250e+03 2.83565616607666e+00 577 
5.60420751953125e+03 7.15736279296875e+03 2.16538858413696e+00 581 
6.15256298828125e+03 6.90770947265625e+03 1.97689509391785e+00 582 
7.07486132812500e+03 6.44404492187500e+03 2.48186421394348e+00 583 
3.78682202148438e+03 3.79158203125000e+03 3.03579783439636e+00 585 
4.54420263671875e+03 3.18822045898438e+03 2.41120505332947e+00 587 
8.83547363281250e+03 7.33069763183594e+02 2.14731669425964e+00 589 
3.66090454101562e+03 5.98812548828125e+03 3.20583367347717e+00 590 
5.74789697265625e+03 6.03451721191406e+02 1.04361939430237e+00 591 
3.46980517578125e+03 6.09061376953125e+03 1.64253354072571e+00 595 
2.79437988281250e+03 2.66545654296875e+03 1.38663685321808e+00 597 
3.83210302734375e+03 5.14657275390625e+03 1.21915578842163e+00 604 
3.30991943359375e+03 4.11260156250000e+03 1.16193306446075e+00 607 
5.09607470703125e+03 3.59363671875000e+03 1.08862519264221e+00 608 
3.16488940429688e+03 2.91026416015625e+03 1.35964763164520e+00 610 
3.47070507812500e+03 6.08509179687500e+03 1.75147140026093e+00 616 
3.71620190429688e+03 5.97099511718750e+03 1.78000783920288e+00 617 
5.21080273437500e+03 6.05806835937500e+03 1.74246478080750e+00 618 
4.53946582031250e+03 3.66069140625000e+03 1.58990859985352e+00 621 
4.09768554687500e+03 1.84607714843750e+03 1.92872524261475e+00 623 
7.28200537109375e+03 8.26976757812500e+03 1.08561372756958e+00 624 
6.66306787109375e+03 6.83389062500000e+03 1.28804636001587e+00 628 
7.65430029296875e+03 6.76404833984375e+03 1.24853742122650e+00 629 
6.85189794921875e+03 5.10834326171875e+03 1.37245237827301e+00 630 
2.91486328125000e+03 2.96563916015625e+03 1.21443116664886e+00 633 
8.33665136718750e+03 2.62684472656250e+03 1.01409411430359e+00 634 
3.54430151367188e+03 1.70812414550781e+03 1.32774722576141e+00 635 
2.97202832031250e+03 1.55095593261719e+03 1.15508925914764e+00 636 
3.43611987304688e+03 7.86943798828125e+03 1.53638815879822e+00 638 
7.26841406250000e+03 7.39444580078125e+03 1.78219282627106e+00 640 
4.05135742187500e+03 5.85377636718750e+03 1.65780794620514e+00 641 
4.42073876953125e+03 3.89160693359375e+03 1.51747345924377e+00 642 
4.56981152343750e+03 1.81370251464844e+03 1.42216122150421e+00 644 
5.28544140625000e+03 1.35258825683594e+03 3.17679309844971e+00 646 
3.65093872070312e+03 4.40968627929688e+01 3.15100336074829e+00 647 
5.56713720703125e+03 7.29595068359375e+03 3.15213155746460e+00 648 
6.37672753906250e+03 5.68141503906250e+03 4.94714164733887e+00 649 
5.41496630859375e+03 5.46547900390625e+03 4.84270858764648e+00 651 
3.29298583984375e+03 3.65357397460938e+03 4.67783546447754e+00 652 
3.24307543945312e+03 5.39190856933594e+02 4.10744094848633e+00 654 
3.59524682617188e+03 7.74782031250000e+03 3.39458036422729e+00 656 
4.37220898437500e+03 7.67309814453125e+03 3.77711105346680e+00 657 
2.71330175781250e+03 5.77487011718750e+03 4.17923021316528e+00 658 
2.69894580078125e+03 5.77210791015625e+03 4.21411609649658e+00 659 
5.19422607421875e+03 4.55326318359375e+03 3.88863229751587e+00 660 
7.53466796875000e+03 4.55685394287109e+02 6.71690845489502e+00 662 
2.75151977539062e+03 5.24087890625000e+03 4.40272951126099e+00 664 
6.82689306640625e+03 1.26889404296875e+03 4.52362012863159e+00 666 
3.30446899414062e+03 4.67793334960938e+02 5.44820022583008e+00 667 
3.00572753906250e+03 5.18330224609375e+03 5.31521940231323e+00 670 
4.87239843750000e+03 1.38520187377930e+02 3.99369120597839e+00 672 
4.68107617187500e+03 2.68933441162109e+02 4.66301298141479e+00 674 
4.61458544921875e+03 6.17858789062500e+03 1.22689354419708e+00 679 
6.06901855468750e+03 3.63517456054688e+03 1.27021789550781e+00 680 
7.22113574218750e+03 3.50921728515625e+03 1.35816633701324e+00 681 
3.37091625976562e+03 2.38258520507812e+03 1.33229601383209e+00 684 
3.36730468750000e+03 1.59311523437500e+03 1.06942081451416e+00 687 
3.67765502929688e+03 1.18056298828125e+03 1.30784583091736e+00 688 
4.08106274414062e+03 7.56918518066406e+02 1.20123350620270e+00 689 
4.58084863281250e+03 6.59000878906250e+03 1.17303323745728e+00 695 
8.24798925781250e+03 4.98171240234375e+03 1.21261990070343e+00 698 
5.88955859375000e+03 3.89605737304688e+03 1.27517735958099e+00 700 
2.91426025390625e+03 2.93785815429688e+03 1.17529904842377e+00 703 
5.00286376953125e+03 2.60664184570312e+03 1.37474858760834e+00 704 
8.55476660156250e+03 8.47498828125000e+03 1.23914432525635e+00 706 
3.67602246093750e+03 6.28331347656250e+03 1.76143050193787e+00 708 
5.80648437500000e+03 2.25073486328125e+03 1.01797342300415e+00 709 
3.86565820312500e+03 4.04877514648438e+03 1.47411501407623e+00 710 
3.42473559570312e+03 3.85164404296875e+03 1.45703601837158e+00 711 
4.21971093750000e+03 1.71669470214844e+03 1.38793230056763e+00 713 
3.89943994140625e+03 6.39065869140625e+03 1.01445496082306e+00 716 
3.30483569335938e+03 4.14250585937500e+03 1.26408028602600e+00 719 
8.77212402343750e+03 4.08664550781250e+03 1.10074126720428e+00 721 
7.63078613281250e+03 3.57842041015625e+03 1.09640514850616e+00 724 
5.56141455078125e+03 2.93787011718750e+03 1.32599294185638e+00 725 
3.94351293945312e+03 2.53139208984375e+03 1.30101275444031e+00 726 
2.89117114257812e+03 3.77426171875000e+03 1.47519528865814e+00 729 
4.98685888671875e+03 2.60932275390625e+03 1.41609144210815e+00 730 
4.90692724609375e+03 2.25831201171875e+03 1.09456348419189e+00 731 
8.73579101562500e+03 5.43527001953125e+03 1.54962122440338e+00 738 
6.19729150390625e+03 2.05551220703125e+03 1.61759340763092e+00 739 
6.72894091796875e+03 7.88822265625000e+03 2.51252698898315e+00 741 
4.43215478515625e+03 6.71169482421875e+03 2.07891345024109e+00 742 
6.40405468750000e+03 6.69043066406250e+03 2.09465789794922e+00 744 
3.52003588867188e+03 4.97762158203125e+03 2.29037666320801e+00 746 
4.06346557617188e+03 3.59389526367188e+03 2.33521294593811e+00 747 
4.56085205078125e+03 3.17195019531250e+03 2.41914558410645e+00 748 
8.63915820312500e+03 3.02162500000000e+03 2.52402162551880e+00 749 
3.83853979492188e+03 1.05248767089844e+03 2.79775381088257e+00 751 
3.62108666992188e+03 5.32087524414062e+02 2.21347498893738e+00 753 
8.09973046875000e+03 7.43329296875000e+03 2.36175322532654e+00 754 
5.97099853515625e+03 7.92150878906250e+03 2.53816461563110e+00 756 
3.05171215820312e+03 6.47083349609375e+03 2.13239192962646e+00 757 
4.49184130859375e+03 6.54540869140625e+03 2.32207417488098e+00 758 
7.55432812500000e+03 4.23678417968750e+03 2.53299570083618e+00 759 
5.20904199218750e+03 3.40635083007812e+03 1.90022647380829e+00 760 
6.31693505859375e+03 3.41638525390625e+03 1.90403330326080e+00 762 
7.02464404296875e+03 6.56154443359375e+03 2.93082785606384e+00 764 
2.59749414062500e+03 5.61771826171875e+03 2.77594184875488e+00 766 
4.36898583984375e+03 7.21798193359375e+03 4.33620834350586e+00 770 
2.65509277343750e+03 4.74594628906250e+03 4.63299655914307e+00 771 
3.31858837890625e+03 4.52782104492188e+02 3.97530746459961e+00 772 
4.28857324218750e+03 1.46589892578125e+03 4.59479331970215e+00 774 
2.98421777343750e+03 9.36071533203125e+02 3.77564573287964e+00 775 
3.70924682617188e+03 5.96353076171875e+03 6.78770351409912e+00 776 
2.64946362304688e+03 4.60286621093750e+03 6.82750320434570e+00 777 
8.13350781250000e+03 1.75627734375000e+03 8.99550247192383e+00 779 
3.20926635742188e+03 3.49890747070312e+03 8.69605445861816e+00 780 
3.22395654296875e+03 3.52682153320312e+03 8.18596839904785e+00 782 
4.74494531250000e+03 9.85749023437500e+02 3.31792187690735e+00 786 
7.14917773437500e+03 5.88828076171875e+03 1.99268555641174e+00 790 
3.81746948242188e+03 5.11870068359375e+03 1.99714207649231e+00 791 
8.77761523437500e+03 5.47234667968750e+03 2.02156996726990e+00 792 
5.14075341796875e+03 4.47720507812500e+03 2.01716423034668e+00 793 
2.70321533203125e+03 3.37971826171875e+03 2.68484210968018e+00 794 
4.54568652343750e+03 3.40433081054688e+03 2.43501782417297e+00 795 
2.94048974609375e+03 3.01983520507812e+03 2.34711050987244e+00 796 
8.70013769531250e+03 5.73232519531250e+03 2.08653330802917e+00 798 
4.09005664062500e+03 3.64755786132812e+03 2.49490690231323e+00 799 
3.87317187500000e+03 3.20548168945312e+03 1.82098221778870e+00 800 
4.55760742187500e+03 3.25836889648438e+03 2.40923237800598e+00 801 
3.91948339843750e+03 1.05952160644531e+03 1.94938814640045e+00 804 
2.93814990234375e+03 8.45599548339844e+02 1.95221507549286e+00 805 
7.89503759765625e+03 4.64760009765625e+03 3.30528640747070e+00 808 
3.64812670898438e+03 1.86068688964844e+03 3.48847079277039e+00 810 
3.63749340820312e+03 7.23452911376953e+01 3.38821291923523e+00 811 
2.86336401367188e+03 7.41264746093750e+03 2.57131290435791e+00 813 
6.75307568359375e+03 7.83382080078125e+03 2.27781367301941e+00 814 
5.14451708984375e+03 7.54837988281250e+03 2.68362617492676e+00 815 
4.91309472656250e+03 6.39415527343750e+03 1.95871388912201e+00 816 
3.95727075195312e+03 6.08229638671875e+03 2.78159332275391e+00 817 
6.43008300781250e+03 4.98157373046875e+03 2.57198214530945e+00 819 
5.19164501953125e+03 4.53389013671875e+03 2.93477916717529e+00 820 
4.26793554687500e+03 2.98925268554688e+03 1.61829090118408e+00 821 
6.81852783203125e+03 2.38162597656250e+03 1.68019855022430e+00 823 
6.14527392578125e+03 8.48458435058594e+02 1.88604974746704e+00 824 
3.78402612304688e+03 3.65328308105469e+02 2.43572926521301e+00 825 
4.36751660156250e+03 2.69851409912109e+02 2.04143834114075e+00 826 
5.71221044921875e+03 5.85260070800781e+02 1.62279534339905e+00 828 
3.31702319335938e+03 6.70982861328125e+03 1.05298697948456e+00 829 
8.35141601562500e+03 6.02512255859375e+03 1.11447203159332e+00 830 
8.61864550781250e+03 2.73074682617188e+03 1.55922245979309e+00 831 
8.74610742187500e+03 2.50031079101562e+03 1.21455967426300e+00 832 
6.06540966796875e+03 7.66391943359375e+03 1.32322728633881e+00 833 
7.15138427734375e+03 6.82192626953125e+03 3.35126638412476e+00 834 
2.67389550781250e+03 7.72442333984375e+03 3.09568738937378e+00 835 
3.81254272460938e+03 2.37515185546875e+03 2.14516806602478e+00 836 
3.49542822265625e+03 6.80224609375000e+03 1.63114666938782e+00 837 
4.50088818359375e+03 2.54738403320312e+03 1.55678403377533e+00 838 
2.37689965820312e+03 6.28304003906250e+03 1.04766559600830e+00 839 
4.58108105468750e+03 6.58638037109375e+03 1.17040836811066e+00 840 
8.46548242187500e+03 4.04548608398438e+03 1.02350699901581e+00 841 
3.95899414062500e+03 7.50232714843750e+03 3.87741971015930e+00 842 
6.87604980468750e+03 1.72395214843750e+03 3.86600637435913e+00 843 
8.68726367187500e+03 4.62562841796875e+03 3.25960993766785e+00 844 
7.95221240234375e+03 8.25753320312500e+03 1.28568148612976e+00 845 
6.86894970703125e+03 5.81651171875000e+03 1.01998472213745e+00 846 
2.36059912109375e+03 6.02447900390625e+03 1.54395067691803e+00 847 
2.36130126953125e+03 6.27901220703125e+03 1.14052402973175e+00 848 
7.52010058593750e+03 5.45221533203125e+03 9.87392127513885e-01 849 
5.20638183593750e+03 6.05299511718750e+03 1.56557118892670e+00 850 
7.66450976562500e+03 1.31631994628906e+03 2.05110073089600e+00 851 
3.43947192382812e+03 3.83949682617188e+03 2.54449868202209e+00 852 
8.31772363281250e+03 2.25488378906250e+03 5.35532093048096e+00 853 
7.19863818359375e+03 7.53364746093750e+03 3.61755256652832e+01 854 
4.14631738281250e+03 7.81188232421875e+03 1.44834661483765e+00 855 
5.88160449218750e+03 5.92962695312500e+03 1.86709129810333e+00 856 
4.22730517578125e+03 4.03129052734375e+03 1.85740303993225e+00 857 
8.50678808593750e+03 3.03960034179688e+03 2.58197641372681e+00 858 
2.19738696289062e+03 7.65761035156250e+03 2.20737767219543e+00 859 
5.61906982421875e+03 5.36920043945312e+02 1.52751684188843e+00 860 
4.46394628906250e+03 7.88941992187500e+03 9.77172613143921e-01 861 
8.37676757812500e+03 8.13918359375000e+03 1.28243291378021e+00 862 
6.53090136718750e+03 7.21288769531250e+03 1.26766717433929e+00 863 
3.61218603515625e+03 6.45435156250000e+03 1.53636753559113e+00 864 
8.00851318359375e+03 3.68907006835938e+03 1.21428894996643e+00 865 
5.71624072265625e+03 2.96574609375000e+03 1.01699328422546e+00 866 
4.16123339843750e+03 1.96480395507812e+03 9.72106158733368e-01 867 
2.89245922851562e+03 7.53574951171875e+03 1.00836992263794e+00 868 
4.77695556640625e+03 6.10194335937500e+03 1.05141460895538e+00 869 
6.61737011718750e+03 4.54079492187500e+03 1.03140640258789e+00 870 
8.28111425781250e+03 3.70601367187500e+03 1.01710867881775e+00 871 
3.63069824218750e+03 2.75249023437500e+03 1.32131826877594e+00 872 
3.99153295898438e+03 1.81167175292969e+03 1.26484930515289e+00 873 
4.11470800781250e+03 5.68578027343750e+03 1.41022503376007e+00 874 
7.35927929687500e+03 5.90368212890625e+03 1.23042929172516e+00 875 
5.29589892578125e+03 1.96582775878906e+03 1.75283849239349e+00 876 
4.53929687500000e+03 1.47970129394531e+03 1.51079130172729e+00 877 
7.16925830078125e+03 8.26414648437500e+03 1.13486099243164e+00 878 
4.83199658203125e+03 7.63219140625000e+03 1.24713599681854e+00 879 
6.08485742187500e+03 6.87722363281250e+03 1.37706398963928e+00 880 
8.74257226562500e+03 6.96105859375000e+03 1.30376362800598e+00 881 
3.92785717773438e+03 5.18164501953125e+03 1.20062780380249e+00 882 
3.29295629882812e+03 4.91998388671875e+03 1.01503539085388e+00 883 
3.50805200195312e+03 2.16961230468750e+03 3.55593657493591e+00 884 
4.79860156250000e+03 7.77342333984375e+03 2.41897630691528e+00 885 
4.70848144531250e+03 6.62532421875000e+03 1.96621859073639e+00 886 
4.86431445312500e+03 3.60244311523438e+03 2.57039189338684e+00 887 
4.55258740234375e+03 3.18008496093750e+03 2.37451004981995e+00 888 
3.91135107421875e+03 1.06372106933594e+03 2.70988392829895e+00 889 
3.91173486328125e+03 1.04713085937500e+03 1.87385857105255e+00 890 
4.51569238281250e+03 6.32460302734375e+03 2.81023693084717e+00 891 
7.83390234375000e+03 5.75448193359375e+03 2.70536494255066e+00 892 
4.52723925781250e+03 5.40562451171875e+03 3.11971092224121e+00 893 
6.82725146484375e+03 3.27003588867188e+03 1.59795916080475e+00 894 
3.25254370117188e+03 1.17121423339844e+03 1.95772027969360e+00 895 
5.93543896484375e+03 8.64178649902344e+02 2.24214744567871e+00 896 
8.51134667968750e+03 1.97112075805664e+02 3.37743759155273e+00 897 
4.44352441406250e+03 6.41481738281250e+03 2.46299052238464e+00 898 
6.49061376953125e+03 4.99521875000000e+03 2.94275379180908e+00 899 
3.85775756835938e+03 5.10618115234375e+03 1.41502773761749e+00 900 
4.40798144531250e+03 1.42865307617188e+03 1.62675917148590e+00 901 
4.59877246093750e+03 6.58233447265625e+03 1.39941608905792e+00 902 
4.27125830078125e+03 5.04860449218750e+03 1.10894346237183e+00 903 
3.49970092773438e+03 3.89432763671875e+03 1.37399744987488e+00 904 
5.42881835937500e+03 3.98117358398438e+03 1.29732692241669e+00 905 
4.41108105468750e+03 3.17318774414062e+03 1.22247552871704e+00 906 
3.43042407226562e+03 7.85498583984375e+03 1.71573269367218e+00 907 
8.02329980468750e+03 7.95359228515625e+03 1.48708558082581e+00 908 
2.89049682617188e+03 6.15998583984375e+03 1.57927131652832e+00 909 
5.26386230468750e+03 3.15772973632812e+03 1.50870227813721e+00 910 
3.26522705078125e+03 5.97284179687500e+03 1.32564258575439e+00 911 
8.31360156250000e+03 5.96044482421875e+03 1.27023482322693e+00 912 
4.73149462890625e+03 5.43267773437500e+03 1.38229858875275e+00 913 
3.38098022460938e+03 3.95658935546875e+03 1.14005720615387e+00 914 
2.74056298828125e+03 2.56071582031250e+03 1.14524269104004e+00 915 
8.48349414062500e+03 4.04004418945312e+03 1.79776096343994e+00 917 
4.73761523437500e+03 5.52105712890625e+03 5.51425313949585e+00 918 
6.85387841796875e+03 1.74251464843750e+03 5.22172307968140e+00 919 
6.18268457031250e+03 4.80977636718750e+03 1.22651290893555e+00 920 
4.24524804687500e+03 4.39591748046875e+03 1.25099468231201e+00 921 
5.67634765625000e+03 2.99785498046875e+03 1.13890027999878e+00 922 
4.53055712890625e+03 2.74696166992188e+03 1.36585927009583e+00 923 
3.64199194335938e+03 2.45179565429688e+03 1.01807200908661e+00 924 
3.01733154296875e+03 2.04660791015625e+03 1.34315073490143e+00 925 
3.75792553710938e+03 7.67650878906250e+03 1.69353020191193e+00 926 
4.26160400390625e+03 3.59375927734375e+03 1.55680155754089e+00 927 
7.71459130859375e+03 2.15578222656250e+03 1.58982408046722e+00 928 
2.99149511718750e+03 3.18723071289062e+03 1.13932669162750e+00 929 
3.40521191406250e+03 4.86014892578125e+03 1.54546546936035e+00 930 
8.08701513671875e+03 8.01388330078125e+03 1.48366367816925e+00 931 
5.17292919921875e+03 7.37228417968750e+03 1.14002156257629e+00 932 
2.79211254882812e+03 4.70487158203125e+03 1.21001207828522e+00 933 
4.02995849609375e+03 4.17824218750000e+03 1.13196396827698e+00 934 
8.18420312500000e+03 2.29464599609375e+03 9.87030386924744e-01 935 
3.23608374023438e+03 3.57330200195312e+03 1.00811803340912e+00 936 
6.90834130859375e+03 2.79568945312500e+03 1.35787808895111e+00 937 
4.41102392578125e+03 8.14805224609375e+03 9.81416463851929e-01 938 
8.51927148437500e+03 4.20141650390625e+03 1.97092938423157e+00 939 
3.20137377929688e+03 2.77225494384766e+02 1.57646775245667e+00 940 
3.71861010742188e+03 7.86848583984375e+03 1.73162376880646e+00 941 
7.79200634765625e+03 5.81680371093750e+03 2.78653550148010e+00 942 
8.11467675781250e+03 5.68220214843750e+03 2.58915615081787e+00 943 
4.00895654296875e+03 1.45856079101562e+03 1.56120002269745e+00 944 
3.59703784179688e+03 6.70492578125000e+03 2.55388736724854e+00 945 
7.48511035156250e+03 2.07070825195312e+03 2.08887696266174e+00 946 
6.80446826171875e+03 1.71376049804688e+03 2.58132791519165e+00 947 
2.10730371093750e+03 9.84732128906250e+03 1.61201393604279e+00 948 
3.46165258789062e+03 3.12832031250000e+03 3.62808537483215e+00 949 
4.51115625000000e+03 6.01637390136719e+02 5.10293960571289e+00 950 
5.19493945312500e+03 1.37531326293945e+02 3.91001725196838e+00 951 
5.38587451171875e+03 7.03020605468750e+03 2.63105640411377e+01 952 
8.64389062500000e+03 1.20549438476562e+02 2.88719892501831e+00 953 
3.03453198242188e+03 6.57703027343750e+03 2.08746004104614e+00 954 
4.69445410156250e+03 5.47357958984375e+03 3.06883311271667e+00 955 
4.71139257812500e+03 4.30277685546875e+03 2.03613567352295e+00 956 
5.20731738281250e+03 3.16981835937500e+03 2.83545446395874e+00 957 
8.62014941406250e+03 3.05092675781250e+03 2.47898602485657e+00 958 
4.38738134765625e+03 7.27270947265625e+03 3.03641390800476e+00 959 
4.85667871093750e+03 1.04525085449219e+03 3.35065364837646e+00 960 
5.87967285156250e+03 4.88589501953125e+03 1.38279175758362e+00 961 
3.10147167968750e+03 5.67944042968750e+03 3.04719090461731e+00 962 
6.04219873046875e+03 8.93257324218750e+02 3.35782003402710e+00 963 
2.72920117187500e+03 1.02603525390625e+04 2.00395202636719e+00 964 
3.98546801757812e+03 1.47006152343750e+03 1.27842605113983e+00 965 
2.93018627929688e+03 7.40157617187500e+03 1.04696822166443e+00 973 
2.45063989257812e+03 7.19262939453125e+03 3.34556341171265e+00 982 
2.52470385742188e+03 1.02530312500000e+04 8.58442020416260e+00 987 
8.53711523437500e+03 7.11757128906250e+03 9.84203815460205e-01 994 
5.29819970703125e+03 1.01589912109375e+04 1.23543632030487e+00 995 
7.13718408203125e+03 1.24954697265625e+04 2.94919562339783e+00 1000 
7.51915380859375e+03 5.46948046875000e+03 3.52268314361572e+00 1003 
6.23537890625000e+03 6.30741259765625e+03 3.44348955154419e+00 1004 
6.13614404296875e+03 7.76683447265625e+03 1.17424452304840e+00 1006 
7.60007568359375e+03 8.09422216796875e+03 2.06548762321472e+00 1007 
5.57118164062500e+03 8.53549023437500e+03 1.70237076282501e+00 1008 
6.07873925781250e+03 9.16079833984375e+02 9.43698942661285e-01 1015 
8.42389160156250e+03 7.53437500000000e+03 1.07395267486572e+00 1018 
8.21227050781250e+03 8.37302441406250e+03 1.35974025726318e+00 1020 
8.18459228515625e+03 9.17007031250000e+03 1.11593914031982e+00 1021 
6.34366064453125e+03 8.07245898437500e+03 2.89280486106873e+00 1022 
5.53742333984375e+03 8.58321679687500e+03 1.78750896453857e+00 1028 
7.54662988281250e+03 1.04359873046875e+04 2.05133843421936e+00 1029 
4.81276513671875e+03 1.23294873046875e+04 2.81132411956787e+00 1030 
6.11681347656250e+03 6.88810107421875e+03 2.13317632675171e+00 1031 
7.27415234375000e+03 1.03988066406250e+04 2.18106031417847e+00 1032 
7.39675048828125e+03 1.04716513671875e+04 1.60694646835327e+00 1033 
4.97392529296875e+03 1.14029951171875e+04 2.23810410499573e+00 1034 
7.57075878906250e+03 1.03565458984375e+04 2.54359936714172e+00 1035 
5.62954003906250e+03 6.04546923828125e+03 1.42367434501648e+00 1040 
5.86093261718750e+03 8.69387011718750e+03 1.58924984931946e+00 1041 
8.50999804687500e+03 9.87884765625000e+03 1.69116353988647e+00 1043 
6.93944628906250e+03 1.19895537109375e+04 1.03590190410614e+00 1048 
6.94413720703125e+03 1.19895419921875e+04 1.04951131343842e+00 1049 
6.07046582031250e+03 1.08831237792969e+03 1.05042636394501e+00 1050 
8.49071582031250e+03 7.11605273437500e+03 9.49048101902008e-01 1054 
8.50882226562500e+03 7.13295751953125e+03 8.90667080879211e-01 1055 
7.70874023437500e+03 1.07609628906250e+04 1.44322109222412e+00 1059 
6.03971728515625e+03 1.20117578125000e+04 1.44071578979492e+00 1060 
7.83453222656250e+03 1.24297988281250e+04 1.56317973136902e+00 1061 
4.86062548828125e+03 1.25351357421875e+04 1.08667218685150e+00 1062 
8.68528320312500e+03 8.76543164062500e+03 1.30147480964661e+00 1065 
7.02441552734375e+03 1.11326347656250e+04 4.06302690505981e+00 1067 
6.41641455078125e+03 1.12018535156250e+04 1.64884700775146e+01 1068 
4.95938916015625e+03 1.04776308593750e+04 1.81756305694580e+00 1069 
7.31919970703125e+03 1.22102187500000e+04 1.74871385097504e+00 1073 
5.93608007812500e+03 4.88948193359375e+03 1.16353225708008e+00 1078 
7.89912646484375e+03 5.84046386718750e+03 1.26041352748871e+00 1079 
7.95652490234375e+03 1.07379306640625e+04 1.01033484935760e+00 1084 
7.74356298828125e+03 1.19903554687500e+04 1.07435715198517e+00 1088 
8.07884814453125e+03 1.22690966796875e+04 1.03514993190765e+00 1089 
7.12370947265625e+03 3.68310595703125e+03 1.21853840351105e+00 1090 
5.91146582031250e+03 8.72631542968750e+03 1.32743430137634e+00 1092 
5.37351806640625e+03 9.22923925781250e+03 1.33685970306396e+00 1095 
4.95439404296875e+03 9.79375878906250e+03 1.23523485660553e+00 1096 
4.72217187500000e+03 1.19493906250000e+04 1.55000960826874e+00 1097 
4.75309814453125e+03 1.19675126953125e+04 1.68662190437317e+00 1098 
8.00991259765625e+03 2.06744409179688e+03 1.26803696155548e+00 1100 
5.78476660156250e+03 7.21547363281250e+03 1.04900908470154e+00 1105 
8.22433593750000e+03 8.08564941406250e+03 1.32014155387878e+00 1107 
7.84298339843750e+03 8.29369238281250e+03 1.07515585422516e+00 1108 
6.79414892578125e+03 1.01135322265625e+04 1.37046480178833e+00 1111 
5.28753173828125e+03 1.01489199218750e+04 1.02311015129089e+00 1112 
8.35494140625000e+03 1.03974667968750e+04 1.08732962608337e+00 1113 
8.82527929687500e+03 1.08523515625000e+04 1.27687501907349e+00 1116 
8.13353027343750e+03 1.08341796875000e+04 1.24700534343719e+00 1117 
8.37749023437500e+03 1.24533574218750e+04 1.00125694274902e+00 1122 
4.98088085937500e+03 9.78685644531250e+03 1.43550264835358e+00 1127 
7.16265527343750e+03 1.04654423828125e+04 1.54101657867432e+00 1128 
5.20544726562500e+03 1.10739130859375e+04 1.62004005908966e+00 1130 
7.31896240234375e+03 1.22154052734375e+04 1.76086759567261e+00 1131 
5.14011132812500e+03 8.12946972656250e+03 1.93349730968475e+00 1132 
7.79859277343750e+03 1.03265009765625e+04 2.25309634208679e+00 1135 
6.12650292968750e+03 1.19723535156250e+04 2.17566800117493e+00 1136 
4.87657177734375e+03 1.29499394531250e+04 2.26012682914734e+00 1137 
5.35108984375000e+03 7.02458789062500e+03 2.57304453849792e+00 1140 
5.34565332031250e+03 8.16481933593750e+03 1.76054847240448e+00 1141 
8.72090820312500e+03 8.86157812500000e+03 1.64543998241425e+00 1142 
4.94478076171875e+03 9.82368359375000e+03 1.92060315608978e+00 1143 
4.83229394531250e+03 1.11610302734375e+04 1.75422871112823e+00 1144 
5.11676904296875e+03 1.15077148437500e+04 2.45610713958740e+00 1145 
5.10222607421875e+03 1.15398750000000e+04 2.44113302230835e+00 1146 
4.68561279296875e+03 1.23038027343750e+04 2.89404273033142e+00 1148 
4.86209667968750e+03 1.29381171875000e+04 2.24389123916626e+00 1149 
4.88291259765625e+03 1.29552851562500e+04 2.17513012886047e+00 1150 
6.28391943359375e+03 9.73276464843750e+03 3.34828639030457e+00 1151 
5.09245947265625e+03 1.15614052734375e+04 2.47397112846375e+00 1154 
5.32259033203125e+03 1.18688583984375e+04 1.74371457099915e+00 1155 
6.13518701171875e+03 1.19672080078125e+04 2.53624057769775e+00 1156 
6.48812988281250e+03 1.29250185546875e+04 3.13414216041565e+00 1157 
4.94895703125000e+03 8.23467187500000e+03 3.20493292808533e+00 1158 
6.39421533203125e+03 9.12321777343750e+03 3.12143158912659e+00 1159 
6.43863964843750e+03 1.24881669921875e+04 3.12387323379517e+00 1160 
6.44546728515625e+03 1.25224824218750e+04 3.08376955986023e+00 1161 
6.46647998046875e+03 1.25398974609375e+04 2.92680501937866e+00 1162 
8.08405712890625e+03 2.69705718994141e+02 9.89883482456207e-01 1163 
8.28915625000000e+03 5.96002880859375e+03 1.04012846946716e+00 1167 
5.16260839843750e+03 6.75833154296875e+03 1.01281487941742e+00 1168 
8.08391699218750e+03 7.45729052734375e+03 1.09237229824066e+00 1169 
6.49328662109375e+03 8.91696191406250e+03 1.10917413234711e+00 1173 
4.85599951171875e+03 9.00978125000000e+03 9.32930290699005e-01 1174 
8.60300195312500e+03 9.55272363281250e+03 1.34664428234100e+00 1175 
7.86273193359375e+03 1.08036718750000e+04 1.16500592231750e+00 1178 
8.55522949218750e+03 1.18462978515625e+04 1.01189410686493e+00 1181 
5.61272851562500e+03 1.16896152343750e+04 1.09771156311035e+00 1182 
8.49271875000000e+03 1.24621933593750e+04 1.20298504829407e+00 1183 
8.30707617187500e+03 5.95737402343750e+03 1.34279167652130e+00 1187 
7.50925439453125e+03 8.15097558593750e+03 2.05542254447937e+00 1189 
8.68296093750000e+03 1.07450908203125e+04 1.57418036460876e+00 1190 
8.22350585937500e+03 4.03045654296875e+02 1.56973743438721e+00 1192 
6.92717333984375e+03 8.15449316406250e+03 1.07649409770966e+00 1198 
7.18961230468750e+03 8.59077441406250e+03 1.11309826374054e+00 1200 
8.35382226562500e+03 1.03914863281250e+04 1.06946253776550e+00 1206 
7.96378564453125e+03 1.07379003906250e+04 9.96083617210388e-01 1207 
6.39798779296875e+03 1.19261777343750e+04 1.38327252864838e+00 1209 
5.64362988281250e+03 1.19140576171875e+04 1.31502008438110e+00 1210 
5.45508593750000e+03 1.27158857421875e+04 1.16021478176117e+00 1212 
6.15360205078125e+03 3.15151293945312e+03 1.66201901435852e+00 1214 
8.71185351562500e+03 1.07582148437500e+04 1.69030988216400e+00 1219 
7.87424267578125e+03 1.07709726562500e+04 1.64893448352814e+00 1221 
4.74020605468750e+03 1.08753359375000e+04 1.61370503902435e+00 1222 
7.27109082031250e+03 8.82677246093750e+03 1.99104726314545e+00 1223 
5.61304150390625e+03 1.16973105468750e+04 1.91443502902985e+00 1226 
8.51188769531250e+03 5.67023779296875e+03 1.76379895210266e+00 1229 
5.09626513671875e+03 6.12336083984375e+03 2.13942909240723e+00 1230 
5.02492382812500e+03 8.82185644531250e+03 2.05185222625732e+00 1232 
5.74161230468750e+03 1.21290117187500e+04 2.88944578170776e+00 1236 
4.95721923828125e+03 8.29009277343750e+03 2.35669398307800e+00 1239 
7.00115771484375e+03 9.05558105468750e+03 2.51232075691223e+00 1240 
4.81770605468750e+03 1.06279775390625e+04 2.63792896270752e+00 1241 
4.78251318359375e+03 1.08819414062500e+04 1.99097466468811e+00 1242 
5.15145800781250e+03 1.03950312500000e+04 2.87318015098572e+00 1243 
6.19845019531250e+03 1.23154833984375e+04 3.05652928352356e+00 1244 
6.21956787109375e+03 1.23329052734375e+04 3.06985521316528e+00 1245 
5.76647314453125e+03 8.55926367187500e+03 2.09888839721680e+00 1247 
6.75804296875000e+03 9.39348535156250e+03 2.22312545776367e+00 1250 
7.18472558593750e+03 1.03816103515625e+04 2.59141373634338e+00 1251 
5.17445410156250e+03 1.03549697265625e+04 2.22635340690613e+00 1252 
4.99307714843750e+03 8.36292285156250e+03 3.22799992561340e+00 1254 
8.45520117187500e+03 9.56340039062500e+03 2.69916152954102e+00 1257 
4.71176611328125e+03 1.23139589843750e+04 2.96121907234192e+00 1261 
4.90768652343750e+03 7.96519775390625e+03 3.80124449729919e+00 1265 
5.62194140625000e+03 9.45368945312500e+03 1.51570177078247e+00 1266 
5.61887792968750e+03 9.46137304687500e+03 1.59658634662628e+00 1267 
6.76500439453125e+03 3.23721142578125e+03 1.30961322784424e+00 1270 
8.20593261718750e+03 3.90606005859375e+03 1.34918439388275e+00 1271 
8.37266308593750e+03 1.02887451171875e+04 1.08740746974945e+00 1272 
7.06673291015625e+03 1.09970693359375e+04 9.70725238323212e-01 1275 
5.85825585937500e+03 1.11841923828125e+04 9.52880024909973e-01 1277 
8.23280371093750e+03 1.24320986328125e+04 1.37252271175385e+00 1281 
7.49577929687500e+03 1.17673742675781e+03 1.54222929477692e+00 1284 
8.31032519531250e+03 5.96707519531250e+03 1.50533783435822e+00 1285 
4.97556201171875e+03 6.35495751953125e+03 1.49223530292511e+00 1286 
5.84565820312500e+03 9.23018457031250e+03 1.78147661685944e+00 1288 
4.97728076171875e+03 9.80662207031250e+03 1.35163259506226e+00 1289 
6.79113085937500e+03 1.02176328125000e+04 1.60974538326263e+00 1290 
7.79400244140625e+03 1.03905000000000e+04 1.71453070640564e+00 1291 
7.79032666015625e+03 1.03987607421875e+04 1.93133115768433e+00 1292 
5.85969335937500e+03 1.24885029296875e+04 1.57112848758698e+00 1294 
6.91611132812500e+03 2.54184619140625e+03 1.29229247570038e+00 1298 
8.18084814453125e+03 3.73642187500000e+03 1.18575680255890e+00 1299 
5.70992822265625e+03 1.00168681640625e+04 1.35801875591278e+00 1302 
8.37158105468750e+03 1.02937060546875e+04 1.00420987606049e+00 1303 
7.45854833984375e+03 1.18922333984375e+04 1.30933761596680e+00 1305 
6.40000000000000e+03 1.19401103515625e+04 1.22473871707916e+00 1306 
8.02806787109375e+03 1.22457031250000e+04 1.19131207466125e+00 1307 
8.36325878906250e+03 8.14381152343750e+03 1.65058851242065e+00 1310 
4.80979589843750e+03 1.23029531250000e+04 1.65665698051453e+00 1314 
4.89117724609375e+03 1.23397861328125e+04 1.80423796176910e+00 1315 
8.37848242187500e+03 1.03720068359375e+04 1.08517694473267e+00 1325 
5.62595751953125e+03 1.16223642578125e+04 1.19795882701874e+00 1328 
5.62408056640625e+03 1.22692285156250e+04 1.39439392089844e+00 1331 
8.63132031250000e+03 1.06822119140625e+04 1.76843941211700e+00 1337 
7.87975341796875e+03 1.48706164550781e+03 1.21144223213196e+00 1340 
8.39156542968750e+03 6.33029980468750e+03 1.14646315574646e+00 1344 
6.45119873046875e+03 9.56981250000000e+03 1.28157854080200e+00 1348 
8.26967382812500e+03 1.03898769531250e+04 1.10544860363007e+00 1349 
7.31051953125000e+03 1.07776416015625e+03 2.68193721771240e+00 1357 
7.00585546875000e+03 3.84254321289062e+03 1.53204953670502e+00 1359 
5.08991748046875e+03 5.05114941406250e+03 1.40097498893738e+00 1360 
7.99189501953125e+03 8.92427343750000e+03 1.72114264965057e+00 1362 
7.01441699218750e+03 6.14993994140625e+03 6.28666543960571e+00 1363 
6.30221875000000e+03 9.71871972656250e+03 6.78463459014893e+00 1364 
5.78240234375000e+03 9.85573730468750e+03 3.80881595611572e+00 1368 
7.62271630859375e+03 1.18826503906250e+04 4.87643051147461e+00 1369 
7.29106396484375e+03 1.13038115234375e+04 1.12802515029907e+01 1371 
6.19184082031250e+03 1.09147685546875e+04 1.61057052612305e+01 1374 
8.04381201171875e+03 6.11138183593750e+03 1.14736032485962e+00 1375 
6.27838330078125e+03 6.53191503906250e+03 2.67162322998047e+00 1376 
8.52240332031250e+03 7.14782958984375e+03 1.01354777812958e+00 1377 
6.22369531250000e+03 1.09914326171875e+04 3.81821022033691e+01 1378 
8.74009667968750e+03 1.17122695312500e+04 1.62935209274292e+00 1379 
5.70863769531250e+03 9.56033398437500e+03 3.01217651367188e+00 1380 
5.16399267578125e+03 1.04065517578125e+04 3.18612718582153e+00 1381 
7.83662500000000e+03 6.64092480468750e+03 1.03772497177124e+00 1382 
5.66349511718750e+03 1.22244775390625e+04 1.86866855621338e+00 1383 
4.68358544921875e+03 5.50166894531250e+03 5.68261384963989e+00 1384 
5.62765380859375e+03 7.14742724609375e+03 9.92937028408051e-01 1385 
7.71770605468750e+03 1.25147265625000e+04 1.59482574462891e+00 1386 
7.43635058593750e+03 2.22895043945312e+03 1.23306727409363e+00 1387 
5.55737158203125e+03 4.81763232421875e+03 1.09800434112549e+00 1388 
8.57242578125000e+03 5.71688476562500e+03 1.08829939365387e+00 1389 
5.17649511718750e+03 7.36595068359375e+03 1.14035916328430e+00 1390 
6.72753076171875e+03 9.46138183593750e+03 1.80289518833160e+00 1418 
6.12828076171875e+03 1.19540273437500e+04 1.90920305252075e+00 1419 
6.48049462890625e+03 9.27957617187500e+03 1.60836696624756e+00 1439 
3.58640673828125e+03 1.02894609375000e+04 1.85205423831940e+00 1453 
2.56249047851562e+03 1.11902734375000e+04 2.55575346946716e+00 1454 
2.65484155273438e+03 1.26057773437500e+04 2.21732974052429e+00 1455 
4.35815283203125e+03 1.07375878906250e+04 1.63587343692780e+00 1456 
2.52268725585938e+03 1.12906005859375e+04 1.61293303966522e+00 1457 
4.12874462890625e+03 1.29605214843750e+04 2.23687481880188e+00 1458 
4.09005322265625e+03 7.02758251953125e+03 1.07479393482208e+00 1459 
4.31687158203125e+03 9.60801562500000e+03 1.24014425277710e+00 1460 
6.28470703125000e+03 9.72361621093750e+03 1.40201497077942e+00 1461 
3.64747021484375e+03 9.67509277343750e+03 9.69631969928741e-01 1462 
3.73047363281250e+03 1.01644736328125e+04 1.33969569206238e+00 1463 
4.21690869140625e+03 1.02438652343750e+04 1.14547467231750e+00 1464 
2.60176049804688e+03 6.09151171875000e+03 1.38319528102875e+00 1465 
4.05674243164062e+03 1.02190527343750e+04 1.39857077598572e+00 1466 
3.82896166992188e+03 1.25814306640625e+04 1.59286153316498e+00 1467 
2.58340478515625e+03 7.20927978515625e+03 1.31525731086731e+00 1468 
4.17257714843750e+03 1.01852246093750e+04 1.29624855518341e+00 1469 
3.53436523437500e+03 1.12927685546875e+04 1.04442906379700e+00 1470 
4.80838867187500e+03 1.72693139648438e+03 1.22170615196228e+00 1471 
4.14503710937500e+03 4.51620361328125e+03 1.30976450443268e+00 1472 
3.73067871093750e+03 9.66565722656250e+03 9.69212412834167e-01 1473 
8.40372949218750e+03 9.69269335937500e+03 1.72300660610199e+00 1474 
3.70470068359375e+03 1.01645419921875e+04 2.19223785400391e+00 1475 
7.67598828125000e+03 1.19524296875000e+04 2.91630291938782e+00 1476 
3.43530810546875e+03 5.19218212890625e+03 1.20549607276917e+00 1477 
3.86369995117188e+03 8.60533398437500e+03 9.59094166755676e-01 1478 
7.67696826171875e+03 9.57158691406250e+03 1.00221526622772e+00 1479 
6.01160888671875e+03 1.11860830078125e+04 1.16375362873077e+00 1480 
6.81093798828125e+03 1.19010976562500e+04 1.20403373241425e+00 1481 
3.31525537109375e+03 1.28302841796875e+04 1.50513255596161e+00 1482 
3.22858618164062e+03 6.72588623046875e+03 1.12749314308167e+00 1483 
2.60535205078125e+03 9.58463085937500e+03 1.19289088249207e+00 1484 
4.71811767578125e+03 4.60784033203125e+03 3.68016910552979e+00 1485 
2.50265747070312e+03 1.14548710937500e+04 2.13450193405151e+00 1486 
4.83548437500000e+03 7.92278808593750e+03 3.03425288200378e+00 1487 
7.10290087890625e+03 1.12990322265625e+04 3.53249168395996e+00 1488 
3.34131445312500e+03 1.28356513671875e+04 1.46568822860718e+00 1489 
2.60404443359375e+03 9.59258984375000e+03 1.24284315109253e+00 1490 
8.35161914062500e+03 9.80748046875000e+03 1.52100312709808e+00 1491 
4.11529101562500e+03 1.00970556640625e+04 1.06268453598022e+00 1492 
4.65186962890625e+03 1.06297685546875e+04 1.01827120780945e+00 1493 
3.49891943359375e+03 1.01623359375000e+04 1.57354545593262e+00 1494 
4.38091992187500e+03 1.05973857421875e+04 1.39769423007965e+00 1495 
3.51399975585938e+03 1.14250742187500e+04 1.43244087696075e+00 1496 
4.79246777343750e+03 7.46640039062500e+03 1.49422335624695e+00 1497 
2.89623901367188e+03 7.49966943359375e+03 1.11446869373322e+00 1498 
3.87650708007812e+03 9.46089648437500e+03 9.31185185909271e-01 1499 
2.64102661132812e+03 6.09779052734375e+03 1.41578733921051e+00 1500 
3.44831201171875e+03 8.54735546875000e+03 1.36624860763550e+00 1501 
2.67061083984375e+03 1.00785673828125e+04 1.45863425731659e+00 1502 
2.67752929687500e+03 1.00796572265625e+04 1.59514319896698e+00 1503 
4.47780078125000e+03 1.17081865234375e+04 1.73297679424286e+00 1504 
2.67545312500000e+03 5.09298535156250e+03 1.87870883941650e+00 1505 
3.42649438476562e+03 5.19397167968750e+03 2.00659656524658e+00 1506 
5.90158154296875e+03 9.67175488281250e+03 2.62012839317322e+00 1507 
3.90025732421875e+03 1.19917744140625e+04 1.93032538890839e+00 1508 
2.67840405273438e+03 7.91771972656250e+03 2.88924479484558e+00 1509 
5.69212011718750e+03 9.59670507812500e+03 2.88924789428711e+00 1510 
2.48752319335938e+03 1.24443105468750e+04 3.16459488868713e+00 1511 
4.43845410156250e+03 8.64605371093750e+03 2.06402778625488e+00 1512 
2.67543261718750e+03 6.60996337890625e+03 3.19159626960754e+00 1513 
3.35591552734375e+03 4.61803222656250e+03 2.04705023765564e+00 1514 
5.90562792968750e+03 9.62940039062500e+03 2.71435070037842e+00 1515 
3.01792529296875e+03 1.00403408203125e+04 2.46115231513977e+00 1516 
2.21819018554688e+03 1.11316572265625e+04 1.79496729373932e+00 1517 
4.89693701171875e+03 1.29671279296875e+04 2.08177399635315e+00 1518 
3.62225097656250e+03 1.29614492187500e+04 1.94633042812347e+00 1519 
2.72374560546875e+03 8.52997265625000e+03 1.63311898708344e+00 1520 
4.74994775390625e+03 8.70334960937500e+03 1.58379125595093e+00 1521 
3.48270263671875e+03 8.79269140625000e+03 1.62880289554596e+00 1522 
