ply
format ascii 1.0
element vertex 688
property double x
property double y
property double z
property short id
end_header
-1.30498021841049e-01 -1.75070035457611e+00 8.55085182189941e+00 223 
-3.02105575799942e-01 7.72295176982880e-01 8.54033565521240e+00 224 
-7.01475858688354e-01 6.41076683998108e-01 8.55024814605713e+00 225 
-8.61226975917816e-01 3.38178336620331e-01 8.46949768066406e+00 226 
2.02607060782611e-03 -4.91659119725227e-02 8.55675220489502e+00 227 
6.65554761886597e-01 -7.53880515694618e-02 8.54390716552734e+00 228 
-3.84144037961960e-01 -1.47178247570992e-01 8.55178356170654e+00 229 
-3.57757866382599e-01 -9.83618795871735e-01 8.45997714996338e+00 230 
-1.44141554832458e+00 -1.14498746395111e+00 8.51847267150879e+00 231 
-9.18115973472595e-01 -2.47349882125854e+00 8.53088855743408e+00 232 
-3.40963006019592e-01 3.98191958665848e-01 8.46307659149170e+00 234 
-5.46457827091217e-01 3.40774238109589e-01 8.55412864685059e+00 235 
1.97079554200172e-01 -3.38812351226807e-01 8.45853328704834e+00 236 
-9.07098233699799e-01 -5.63708484172821e-01 8.53472995758057e+00 237 
-1.56968581676483e+00 -1.11640262603760e+00 8.55660533905029e+00 238 
-1.61026179790497e+00 -1.12086641788483e+00 8.53189373016357e+00 239 
-1.08409821987152e+00 -1.43010008335114e+00 8.54621887207031e+00 240 
-1.14622735977173e+00 -1.85590982437134e+00 8.52851772308350e+00 241 
3.34106564521790e-01 -9.45352315902710e-01 8.54988765716553e+00 243 
-1.42993330955505e+00 -1.79548144340515e+00 8.56595802307129e+00 244 
-3.31938475370407e-01 -2.26017284393311e+00 8.54943656921387e+00 245 
-1.61304640769958e+00 -1.99560570716858e+00 8.55929470062256e+00 248 
3.92551690340042e-01 -2.37686300277710e+00 8.48539924621582e+00 250 
4.79432731866837e-01 6.87664449214935e-01 8.45579719543457e+00 252 
-1.33799389004707e-01 -3.66511531174183e-02 8.50060272216797e+00 254 
-6.51441395282745e-01 -3.10054540634155e-01 8.45509815216064e+00 255 
-2.99733191728592e-01 -1.27400505542755e+00 8.44419765472412e+00 256 
-1.83969035744667e-01 -1.67882895469666e+00 8.55610084533691e+00 257 
5.93100599944592e-02 -6.74526810646057e-01 8.55172824859619e+00 259 
-1.69155430793762e+00 -9.91573274135590e-01 8.55719566345215e+00 260 
-3.42900454998016e-01 -1.02011823654175e+00 8.45985794067383e+00 261 
6.30317747592926e-01 -1.49314153194427e+00 8.54649257659912e+00 263 
6.33807182312012e-01 -1.49644005298615e+00 8.54607963562012e+00 264 
-3.57552617788315e-01 -2.17336583137512e+00 8.42415904998779e+00 266 
-1.33582875132561e-01 -2.61582374572754e+00 8.45529365539551e+00 267 
-1.09776496887207e+00 -5.73134243488312e-01 8.47543239593506e+00 268 
-6.47778987884521e-01 -8.64591121673584e-01 8.53535652160645e+00 271 
-2.95065253973007e-01 -1.10726451873779e+00 8.44968414306641e+00 272 
-2.67890691757202e-01 -1.27637708187103e+00 8.44448661804199e+00 273 
-2.66099512577057e-01 -1.27957797050476e+00 8.44477462768555e+00 274 
-1.02075302600861e+00 -1.65067672729492e+00 8.53898811340332e+00 275 
-1.49809312820435e+00 -2.23444342613220e+00 8.56489372253418e+00 276 
-1.97892840951681e-02 8.54806751012802e-02 8.56348991394043e+00 278 
-7.02199637889862e-01 -2.90926903486252e-01 8.45502281188965e+00 279 
3.97740423679352e-01 7.98472285270691e-01 8.47240352630615e+00 280 
5.29644548892975e-01 5.17181813716888e-01 8.47950935363770e+00 281 
-1.13270580768585e+00 -2.24546194076538e-01 8.45332050323486e+00 282 
-6.98343038558960e-01 -2.80032426118851e-01 8.45520401000977e+00 283 
-6.82450950145721e-01 -3.22401493787766e-01 8.45452213287354e+00 284 
4.25456881523132e-01 -3.70632678270340e-01 8.47029209136963e+00 285 
-5.52371203899384e-01 -4.61035311222076e-01 8.47555637359619e+00 286 
-1.23913073539734e+00 -5.98459005355835e-01 8.48785400390625e+00 287 
-1.54586577415466e+00 -6.29548966884613e-01 8.55309104919434e+00 288 
4.37714345753193e-02 -1.32602083683014e+00 8.54811286926270e+00 289 
-4.29895490407944e-01 -1.57953536510468e+00 8.46987724304199e+00 290 
2.00271412730217e-01 -1.75994741916656e+00 8.56882667541504e+00 291 
7.50794291496277e-01 -2.52954435348511e+00 8.54874324798584e+00 293 
3.70064983144403e-03 6.79834604263306e-01 8.47092437744141e+00 294 
-5.51422312855721e-03 6.60751640796661e-01 8.46466541290283e+00 295 
-9.93905402719975e-03 6.54768407344818e-01 8.46216011047363e+00 296 
-1.37363588809967e+00 6.10886037349701e-01 8.53876209259033e+00 297 
4.93640810251236e-01 6.55844509601593e-01 8.45191478729248e+00 298 
2.76613533496857e-01 4.59121376276016e-01 8.54677581787109e+00 299 
-1.65781164169312e+00 2.68498957157135e-01 8.48989200592041e+00 300 
1.44432052969933e-01 2.12749660015106e-01 8.46262836456299e+00 301 
-9.62400257587433e-01 -9.60831250995398e-03 8.55486583709717e+00 302 
-1.00692198611796e-03 -4.14107978343964e-01 8.45940494537354e+00 303 
-1.74276375770569e+00 -9.37919497489929e-01 8.55768585205078e+00 304 
5.32305538654327e-01 -8.72831463813782e-01 8.55093860626221e+00 305 
-1.16797452792525e-02 -1.13052320480347e+00 8.54550933837891e+00 306 
4.21141713857651e-01 -1.22450697422028e+00 8.54984569549561e+00 307 
1.08929738402367e-01 -2.02613115310669e+00 8.44710063934326e+00 308 
-4.46506589651108e-01 -2.18665957450867e+00 8.42562389373779e+00 309 
-1.27005290985107e+00 -2.40310549736023e+00 8.56130599975586e+00 310 
1.37052193284035e-01 1.44268944859505e-01 8.55571269989014e+00 311 
5.36426663398743e-01 -1.09136767685413e-01 8.47245693206787e+00 312 
-1.41057455539703e+00 -6.63303673267365e-01 8.55361175537109e+00 313 
2.27568268775940e-01 -7.01789200305939e-01 8.54215526580811e+00 314 
-9.38776805996895e-02 -1.40259909629822e+00 8.44170093536377e+00 315 
-1.33611583709717e+00 5.44976592063904e-01 8.53881835937500e+00 316 
5.97269713878632e-01 4.42025572061539e-01 8.46006584167480e+00 317 
-1.75677561759949e+00 3.21254576556385e-03 8.56054687500000e+00 318 
-5.61442911624908e-01 -6.41004800796509e-01 8.46367168426514e+00 319 
-1.22082018852234e+00 -1.04356634616852e+00 8.54867744445801e+00 320 
-1.71662235260010e+00 -1.52813589572906e+00 8.55770587921143e+00 321 
6.13697350025177e-01 -1.96747255325317e+00 8.43880176544189e+00 322 
-3.45114886760712e-01 -2.26435565948486e+00 8.54946136474609e+00 323 
-1.25876116752625e+00 -2.39450335502625e+00 8.56136894226074e+00 324 
-9.75700318813324e-01 -2.56828951835632e+00 8.52233028411865e+00 325 
-1.59989929199219e+00 -2.61855888366699e+00 8.46119594573975e+00 326 
-1.00331532955170e+00 7.06796884536743e-01 8.45529270172119e+00 327 
-5.47642946243286e-01 5.86535573005676e-01 8.48295021057129e+00 328 
-5.29146909713745e-01 2.19246014952660e-01 8.55350971221924e+00 329 
-5.83479642868042e-01 -1.79993465542793e-01 8.45482444763184e+00 330 
-1.47335574030876e-01 -9.65856909751892e-01 8.47807598114014e+00 332 
-6.18263542652130e-01 -1.32560491561890e+00 8.46364688873291e+00 334 
-6.75276637077332e-01 3.71600091457367e-01 8.55599403381348e+00 337 
-1.13210260868073e+00 6.19717910885811e-02 8.55578422546387e+00 338 
-7.86487698554993e-01 -1.39243102073669e+00 8.56133270263672e+00 339 
-1.28286695480347e+00 -1.81891596317291e+00 8.46483516693115e+00 340 
-1.37790620326996e+00 -1.91046154499054e+00 8.56632041931152e+00 341 
7.77516365051270e-01 -2.09737133979797e+00 8.55177783966064e+00 342 
1.73764660954475e-01 -2.52799224853516e+00 8.44344615936279e+00 343 
3.74641716480255e-01 2.81549572944641e-01 8.50086116790771e+00 344 
-9.05982375144958e-01 -7.34031856060028e-01 8.55469131469727e+00 345 
-2.45096802711487e-01 -1.42262530326843e+00 8.44021224975586e+00 347 
-1.02545535564423e+00 -1.52181553840637e+00 8.53073120117188e+00 348 
5.31977236270905e-01 -2.55824017524719e+00 8.46970844268799e+00 349 
1.27996996045113e-01 3.06099474430084e-01 8.46737670898438e+00 350 
-5.14507234096527e-01 -7.44667053222656e-01 8.43470764160156e+00 351 
-1.06999385356903e+00 -1.19156944751740e+00 8.46542644500732e+00 352 
-8.45989465713501e-01 -1.42728221416473e+00 8.55994796752930e+00 353 
5.78541994094849e-01 -1.42495965957642e+00 8.54654026031494e+00 354 
-1.43230676651001e+00 -1.79635941982269e+00 8.56566429138184e+00 356 
-8.88014912605286e-01 -1.79019069671631e+00 8.49444389343262e+00 357 
2.62960165739059e-01 -5.96865355968475e-01 8.55024623870850e+00 358 
5.60809485614300e-02 -6.75680041313171e-01 8.55173778533936e+00 359 
-1.61814129352570e+00 -1.71896159648895e+00 8.46957492828369e+00 361 
-1.75070035457611e+00 -1.92704546451569e+00 8.56415081024170e+00 362 
-1.64421558380127e+00 -2.19344043731689e+00 8.53104019165039e+00 363 
-1.39164650440216e+00 1.17855053395033e-02 8.55347061157227e+00 364 
2.32820972800255e-01 -2.54637074470520e+00 8.44719886779785e+00 365 
1.48109853267670e-01 7.29344308376312e-01 8.55197048187256e+00 366 
5.29706239700317e-01 -2.08280229568481e+00 8.45439720153809e+00 367 
-3.11011195182800e-01 -2.34132814407349e+00 8.56760787963867e+00 368 
-1.63483679294586e+00 -5.38918972015381e-01 8.55401420593262e+00 369 
2.80883759260178e-01 5.31867861747742e-01 8.55560111999512e+00 370 
-1.44457474350929e-01 1.73593536019325e-01 8.57284164428711e+00 371 
-1.21984171867371e+00 -1.92734825611115e+00 8.56655025482178e+00 372 
-4.54940199851990e-01 -2.18938803672791e+00 8.42758560180664e+00 373 
1.13496094942093e-01 -1.13538086414337e-01 8.55817604064941e+00 375 
-1.28933835029602e+00 -2.61194348335266e-01 8.47931098937988e+00 376 
-9.64725315570831e-02 -2.08242535591125e+00 8.42585849761963e+00 377 
1.90356075763702e-01 -2.48484659194946e+00 8.44989109039307e+00 378 
-4.77472782135010e-01 -2.27639269828796e+00 8.42787647247314e+00 379 
-9.69748377799988e-01 -2.51690268516541e+00 8.53164863586426e+00 380 
-1.20870001614094e-01 -2.18288898468018e+00 8.43022823333740e+00 381 
-1.18497443199158e+00 -1.97063076496124e+00 8.55952739715576e+00 382 
6.17725312709808e-01 -1.98215365409851e+00 8.43598365783691e+00 383 
-9.69769954681396e-02 -2.15181946754456e+00 8.42510890960693e+00 385 
-6.25885069370270e-01 -1.96317541599274e+00 8.55495452880859e+00 386 
-1.30294650793076e-01 3.67840766906738e-01 8.54515266418457e+00 387 
-2.74612379074097e+00 -2.13299512863159e+00 8.56450080871582e+00 388 
-2.65144681930542e+00 5.19713342189789e-01 8.45489406585693e+00 389 
-1.54617536067963e+00 -1.42634198069572e-01 8.50738716125488e+00 390 
-1.61024674773216e-01 -1.72256302833557e+00 8.55572795867920e+00 391 
-2.38588476181030e+00 -1.95304012298584e+00 8.49055004119873e+00 392 
6.94614589214325e-01 -1.82147765159607e+00 8.55203247070312e+00 393 
-2.52327156066895e+00 -2.53660368919373e+00 8.49501419067383e+00 394 
-5.20150601863861e-01 -2.62821745872498e+00 8.54982948303223e+00 395 
7.35368669033051e-01 -4.79373574256897e-01 8.52267456054688e+00 396 
-1.25677669048309e+00 -6.19315445423126e-01 8.48776721954346e+00 397 
-3.23240518569946e-01 -6.30283296108246e-01 8.44576072692871e+00 398 
-1.83255171775818e+00 -1.97627496719360e+00 8.53455352783203e+00 399 
-7.87990272045135e-01 3.01830828189850e-01 8.54953861236572e+00 400 
-6.82635128498077e-01 3.24417769908905e-01 8.54872131347656e+00 401 
2.33444854617119e-01 -3.06444317102432e-01 8.46390247344971e+00 402 
-2.21858119964600e+00 -6.68827891349792e-01 8.48599338531494e+00 403 
-1.19912195205688e+00 -7.71845459938049e-01 8.51667118072510e+00 404 
2.22517833113670e-01 -2.18451189994812e+00 8.45184040069580e+00 405 
-6.43848001956940e-01 -8.61386299133301e-01 8.53784465789795e+00 407 
-1.20863163471222e+00 -2.59918475151062e+00 8.56958103179932e+00 408 
-2.05762290954590e+00 1.41649559140205e-01 8.46725463867188e+00 409 
-1.96984088420868e+00 -6.71499222517014e-02 8.55366420745850e+00 410 
-5.29785990715027e-01 -1.08420290052891e-01 8.45197582244873e+00 411 
1.00849270820618e-02 -4.08493250608444e-01 8.45908069610596e+00 412 
-2.63575792312622e-01 -5.05223035812378e-01 8.54747295379639e+00 413 
-1.94865632057190e+00 -1.86839270591736e+00 8.53413486480713e+00 414 
-2.77878642082214e+00 -1.42512664198875e-01 8.54831218719482e+00 415 
-2.52819299697876e+00 -4.56021010875702e-01 8.56048965454102e+00 416 
-1.33568549156189e+00 -5.14084577560425e-01 8.55855083465576e+00 417 
-1.98385655879974e+00 -8.58403563499451e-01 8.55788993835449e+00 418 
-2.15387821197510e+00 -2.17117261886597e+00 8.56564521789551e+00 419 
-8.92360687255859e-01 5.19037783145905e-01 8.45798492431641e+00 420 
-2.01482820510864e+00 -4.49438780546188e-01 8.52640151977539e+00 421 
-2.82222700119019e+00 -6.61789238452911e-01 8.55518913269043e+00 422 
-1.35357856750488e+00 4.19123619794846e-01 8.45152091979980e+00 423 
4.27820861339569e-01 -3.71089965105057e-01 8.46971797943115e+00 424 
-1.39647731557488e-02 -5.59014856815338e-01 8.46515178680420e+00 425 
-1.76345789432526e+00 -1.90544295310974e+00 8.53603649139404e+00 426 
-2.08301290869713e-01 -2.23429942131042e+00 8.39706134796143e+00 427 
-1.32588183879852e+00 -3.18630158901215e-01 8.47274589538574e+00 428 
-2.80137443542480e+00 -6.10635459423065e-01 8.55482769012451e+00 429 
-1.31880033016205e+00 3.12222033739090e-01 8.45372009277344e+00 430 
-2.00900673866272e+00 -5.18894102424383e-03 8.55411052703857e+00 431 
-1.83689403533936e+00 -2.27275061607361e+00 8.56067180633545e+00 432 
-1.49084067344666e+00 -6.30375146865845e-01 8.55229377746582e+00 434 
-1.92273557186127e+00 -2.40118598937988e+00 8.47229480743408e+00 436 
-2.21071147918701e+00 -7.38333225250244e-01 8.55687427520752e+00 437 
-9.49153780937195e-01 2.06207081675529e-01 8.55968761444092e+00 438 
3.24992269277573e-01 -8.44446718692780e-01 8.54571819305420e+00 439 
1.37756094336510e-01 1.38728335499763e-01 8.55728530883789e+00 440 
-2.79989266395569e+00 -6.62757098674774e-01 8.55646133422852e+00 441 
-2.64763998985291e+00 -2.09786725044250e+00 8.56463813781738e+00 442 
-1.35444700717926e+00 5.33746421337128e-01 8.53483390808105e+00 443 
-2.61212396621704e+00 1.39985203742981e-01 8.52119541168213e+00 444 
-2.18179392814636e+00 -9.58600044250488e-01 8.51367378234863e+00 445 
-6.16485834121704e-01 -1.23141193389893e+00 8.51181125640869e+00 446 
-1.21191918849945e+00 6.56152665615082e-01 8.54328536987305e+00 447 
-2.33597326278687e+00 5.54205656051636e-01 8.55610847473145e+00 448 
-2.09999608993530e+00 3.97410869598389e-01 8.40732479095459e+00 449 
-4.25600260496140e-01 -1.53622186183929e+00 8.44776725769043e+00 453 
-2.41656279563904e+00 6.49682581424713e-01 8.54549121856689e+00 454 
-2.59520888328552e+00 1.43387809395790e-01 8.51922416687012e+00 458 
-2.61947846412659e+00 -1.66682028770447e+00 8.42550659179688e+00 459 
-6.06475174427032e-01 7.12563693523407e-01 8.48757743835449e+00 460 
-2.41612648963928e+00 2.35599979758263e-01 8.46573638916016e+00 461 
-1.00909566879272e+00 -6.42931222915649e-01 8.43895626068115e+00 463 
-9.02772247791290e-01 -8.72086882591248e-01 8.55557632446289e+00 464 
-2.01003313064575e+00 -1.93290889263153e+00 8.53516960144043e+00 465 
3.06612670421600e-01 -3.59817713499069e-01 8.53220939636230e+00 466 
-1.96439552307129e+00 -2.31683826446533e+00 8.46106433868408e+00 469 
4.45357918739319e-01 -2.49332475662231e+00 8.40615940093994e+00 470 
-2.76371574401855e+00 1.78730562329292e-01 8.55616569519043e+00 471 
-1.91787099838257e+00 -1.82135629653931e+00 8.55729675292969e+00 472 
-2.41510748863220e+00 2.31754645705223e-01 8.46532344818115e+00 473 
3.74126315116882e-01 -6.03595733642578e-01 8.55342197418213e+00 474 
-2.83334183692932e+00 -6.18271648883820e-01 8.55500602722168e+00 476 
-5.22755742073059e-01 7.56334841251373e-01 8.55791854858398e+00 477 
6.67587161064148e-01 -7.65504464507103e-02 8.54414558410645e+00 479 
-2.41626143455505e+00 -2.03876423835754e+00 8.56671237945557e+00 480 
-1.82055151462555e+00 -2.07788705825806e+00 8.56321048736572e+00 481 
4.22188580036163e-01 1.50982677936554e-01 8.48255157470703e+00 482 
-4.80610042810440e-01 -2.48386099934578e-01 8.45148468017578e+00 484 
-2.63295084238052e-01 -5.05372524261475e-01 8.54758358001709e+00 485 
6.95244193077087e-01 -5.72115123271942e-01 8.45785236358643e+00 486 
-1.20432293415070e+00 -1.31581878662109e+00 8.48808383941650e+00 487 
-1.57791316509247e+00 -1.94092893600464e+00 8.47772884368896e+00 488 
-9.34568703174591e-01 -2.21124005317688e+00 8.55735301971436e+00 489 
2.09637001156807e-01 -2.19643640518188e+00 8.44857215881348e+00 490 
-1.97370505332947e+00 9.83627662062645e-02 8.46670246124268e+00 493 
-1.73255717754364e+00 -1.36103823781013e-01 8.55243015289307e+00 494 
-5.81631839275360e-01 -4.52201992273331e-01 8.44762802124023e+00 495 
-1.41624021530151e+00 -1.19350385665894e+00 8.55497264862061e+00 496 
-2.72989583015442e+00 6.10063910484314e-01 8.55580234527588e+00 497 
-2.75956773757935e+00 1.42428100109100e-01 8.55446815490723e+00 498 
-1.97502613067627e+00 -7.00027123093605e-02 8.55866718292236e+00 499 
-1.66068375110626e+00 -3.91068369150162e-01 8.55073928833008e+00 500 
-2.10603475570679e+00 5.28861463069916e-01 8.55474758148193e+00 501 
-1.41235852241516e+00 -1.12137401103973e+00 8.49791622161865e+00 502 
-2.69574403762817e+00 -1.70477330684662e+00 8.44295883178711e+00 503 
-2.11881804466248e+00 -2.50200748443604e+00 8.56196308135986e+00 504 
6.62556350231171e-01 -2.43352842330933e+00 8.54709815979004e+00 505 
7.20689654350281e-01 -2.46726012229919e+00 8.54737091064453e+00 506 
3.79236429929733e-01 -5.84569036960602e-01 8.54832077026367e+00 508 
4.79975283145905e-01 -5.29105722904205e-01 8.55358505249023e+00 509 
2.31384888291359e-01 -7.00166583061218e-01 8.54181385040283e+00 510 
-2.47745132446289e+00 -1.80949795246124e+00 8.50651550292969e+00 511 
-1.05337917804718e+00 5.56100189685822e-01 8.55424308776855e+00 512 
-1.54602217674255e+00 3.05410325527191e-01 8.49375438690186e+00 513 
-2.05968523025513e+00 1.42428591847420e-01 8.46742439270020e+00 514 
-2.60654497146606e+00 8.94311293959618e-02 8.52224159240723e+00 515 
6.69194221496582e-01 -7.84008502960205e-02 8.54304790496826e+00 516 
-2.53062343597412e+00 -3.15741270780563e-01 8.43330478668213e+00 517 
-2.56237506866455e+00 -5.49655258655548e-01 8.52055072784424e+00 518 
-1.74148154258728e+00 -5.73921978473663e-01 8.54849147796631e+00 519 
2.19832986593246e-01 -2.18283104896545e+00 8.44811344146729e+00 521 
-1.48470056056976e+00 -2.27595925331116e+00 8.47171974182129e+00 522 
-2.81696009635925e+00 -2.49646678566933e-01 8.55527305603027e+00 523 
2.91691541671753e-01 -2.29865622520447e+00 8.46265029907227e+00 524 
-2.52582216262817e+00 -2.53584527969360e+00 8.49283313751221e+00 525 
-3.43896210193634e-01 4.17017787694931e-02 8.50271892547607e+00 527 
-2.82036113739014e+00 -1.15725958347321e+00 8.45188331604004e+00 528 
3.15467834472656e-01 -1.14905500411987e+00 8.56608772277832e+00 529 
7.17010676860809e-01 -1.33750915527344e+00 8.54548454284668e+00 530 
-1.17348623275757e+00 -1.66689407825470e+00 8.46240711212158e+00 531 
-2.52112936973572e+00 -2.34884524345398e+00 8.49633693695068e+00 532 
-6.80043518543243e-01 -7.72389054298401e-01 8.45771026611328e+00 533 
-2.69994354248047e+00 -2.33508586883545e+00 8.57488727569580e+00 534 
-2.11814880371094e+00 6.84670329093933e-01 8.51624965667725e+00 535 
-1.38303291797638e+00 6.06928527355194e-01 8.53875160217285e+00 536 
-1.06191837787628e+00 5.79073190689087e-01 8.55409622192383e+00 537 
6.27729356288910e-01 6.12417280673981e-01 8.54964542388916e+00 538 
6.10851287841797e-01 -3.35727934725583e-03 8.46859550476074e+00 539 
-2.47818541526794e+00 -1.92038536071777e-01 8.52822017669678e+00 540 
-1.32837200164795e+00 -3.16975772380829e-01 8.47299385070801e+00 541 
-2.37204241752625e+00 -1.02326452732086e+00 8.50095462799072e+00 542 
-1.80175399780273e+00 -1.21155917644501e+00 8.47006797790527e+00 543 
-1.34499573707581e+00 -1.24606192111969e+00 8.54214000701904e+00 544 
-2.07178950309753e+00 -1.30580556392670e+00 8.56432723999023e+00 545 
-2.19645929336548e+00 -1.37063050270081e+00 8.54696941375732e+00 546 
-1.25367856025696e+00 -1.38155376911163e+00 8.53007221221924e+00 547 
-2.47273087501526e+00 -1.81234872341156e+00 8.50671863555908e+00 548 
1.98888882994652e-01 -1.90398752689362e+00 8.54743099212646e+00 549 
-2.41917204856873e+00 -2.14079236984253e+00 8.49213886260986e+00 550 
-2.22841906547546e+00 -2.08749985694885e+00 8.57353305816650e+00 553 
2.60443449020386e-01 -5.97883999347687e-01 8.55049419403076e+00 554 
-2.55396366119385e+00 -8.71685683727264e-01 8.42348098754883e+00 555 
-9.69962775707245e-01 -1.23286592960358e+00 8.55570030212402e+00 557 
-1.56058132648468e+00 -1.85115230083466e+00 8.47731685638428e+00 558 
-2.48249626159668e+00 -2.08881592750549e+00 8.50869655609131e+00 559 
-1.46035158634186e+00 -2.42455315589905e+00 8.45106315612793e+00 560 
4.30784702301025e-01 7.13314652442932e-01 8.45708751678467e+00 561 
-2.78132081031799e+00 4.04284864664078e-01 8.55743217468262e+00 562 
-8.83608996868134e-01 -1.96732342243195e+00 8.48595905303955e+00 564 
-9.56166863441467e-01 -2.30031833052635e-02 8.55482006072998e+00 566 
-8.16453456878662e-01 -9.37205493450165e-01 8.54709720611572e+00 567 
-2.26366543769836e+00 -1.10925626754761e+00 8.48864650726318e+00 568 
-2.72240018844604e+00 -2.51093316078186e+00 8.47400760650635e+00 570 
6.70863807201385e-01 -1.83252298831940e+00 8.54988765716553e+00 571 
-2.05130457878113e+00 -2.21035432815552e+00 8.56610488891602e+00 572 
-2.11399793624878e+00 -2.38524246215820e+00 8.46349334716797e+00 573 
-2.40502834320068e+00 5.84021627902985e-01 8.54309558868408e+00 574 
-2.30005359649658e+00 -4.88594532012939e-01 8.50378990173340e+00 575 
-1.40411686897278e+00 -6.72988533973694e-01 8.55717468261719e+00 576 
-2.25151109695435e+00 -1.08799159526825e+00 8.48880958557129e+00 577 
-2.07822465896606e+00 -1.29873526096344e+00 8.56467723846436e+00 578 
-9.68729138374329e-01 -1.29474496841431e+00 8.56119823455811e+00 579 
-9.69651639461517e-01 -1.30505490303040e+00 8.56161022186279e+00 580 
7.50018283724785e-03 -2.03900194168091e+00 8.55378532409668e+00 581 
-2.38654637336731e+00 -2.14331364631653e+00 8.50487995147705e+00 582 
-2.79372525215149e+00 -2.20853304862976e+00 8.51365566253662e+00 583 
-2.77371692657471e+00 4.84267361462116e-02 8.56149196624756e+00 584 
-1.92090570926666e-01 6.30989372730255e-02 8.50003147125244e+00 585 
-9.73867177963257e-01 2.65549514442682e-02 8.55469226837158e+00 586 
-3.00170361995697e-01 5.89210130274296e-02 8.50211048126221e+00 587 
-2.00368380546570e+00 -2.18741464614868e+00 8.56178092956543e+00 588 
-2.68103146553040e+00 -2.35728120803833e+00 8.56955051422119e+00 589 
-2.15718817710876e+00 -2.36079692840576e+00 8.55993843078613e+00 590 
-2.03563833236694e+00 5.50227642059326e-01 8.55544567108154e+00 591 
-1.55659329891205e+00 3.63889485597610e-01 8.51738071441650e+00 592 
-1.26871299743652e+00 -3.15709650516510e-01 8.48448085784912e+00 593 
-1.66282236576080e+00 -3.83154958486557e-01 8.55513095855713e+00 594 
-2.57360458374023e+00 -1.05985665321350e+00 8.44534015655518e+00 595 
-6.92109093070030e-02 -1.02275133132935e+00 8.54820728302002e+00 596 
4.23824429512024e-01 -1.92859661579132e+00 8.44709587097168e+00 597 
-2.77686548233032e+00 -2.18547630310059e+00 8.56175613403320e+00 599 
1.12363182008266e-01 -2.36314725875854e+00 8.45477581024170e+00 600 
-2.02038264274597e+00 -2.53625655174255e+00 8.48152351379395e+00 601 
2.76741415262222e-01 4.63889330625534e-01 8.54589366912842e+00 602 
3.62431496381760e-01 3.66147965192795e-01 8.48906040191650e+00 603 
-2.76559972763062e+00 -1.87930643558502e-01 8.55606937408447e+00 604 
-2.77136230468750e+00 -1.88690245151520e-01 8.55670642852783e+00 605 
-2.81500697135925e+00 -2.59857088327408e-01 8.55759429931641e+00 606 
1.85940548777580e-01 6.31638467311859e-01 8.55273437500000e+00 607 
-2.76351404190063e+00 -4.08361941576004e-01 8.55802822113037e+00 608 
-9.21553194522858e-01 -2.48792314529419e+00 8.53108787536621e+00 609 
5.15584409236908e-01 -2.08855557441711e+00 8.45418930053711e+00 611 
-2.82113742828369e+00 -6.68049812316895e-01 8.55478286743164e+00 612 
-3.89979481697083e-01 -1.63896799087524e+00 8.48841476440430e+00 613 
4.86495018005371e-01 -1.84663248062134e+00 8.55245494842529e+00 614 
-2.65179276466370e+00 -2.39465260505676e+00 8.56851577758789e+00 615 
-2.09566736221313e+00 -2.50292015075684e+00 8.56416034698486e+00 616 
1.41822800040245e-01 -2.55912137031555e+00 8.44452953338623e+00 617 
-1.35803902521729e-02 6.34754240512848e-01 8.46392631530762e+00 618 
-2.28054451942444e+00 5.12251734733582e-01 8.56002140045166e+00 619 
-2.33495235443115e+00 -9.31253850460052e-01 8.55414104461670e+00 621 
-2.06207442283630e+00 -9.56009089946747e-01 8.48980522155762e+00 622 
-2.80305194854736e+00 -1.45347714424133e+00 8.47388839721680e+00 623 
-3.28100472688675e-01 -1.63362360000610e+00 8.47956180572510e+00 624 
6.03748202323914e-01 4.35954958200455e-01 8.48015117645264e+00 626 
-2.26234149932861e+00 3.51458042860031e-02 8.55465602874756e+00 627 
-2.31909704208374e+00 -4.70082044601440e-01 8.48604297637939e+00 628 
-2.06536746025085e+00 -5.32852828502655e-01 8.50924301147461e+00 629 
-1.82443213462830e+00 -1.20450818538666e+00 8.46701622009277e+00 630 
-2.74644970893860e+00 -1.33409035205841e+00 8.47270774841309e+00 631 
-2.64735198020935e+00 -1.36566889286041e+00 8.48916149139404e+00 632 
-2.38297128677368e+00 -1.36897552013397e+00 8.49948692321777e+00 633 
-1.60479891300201e+00 -1.40916430950165e+00 8.50309276580811e+00 634 
-1.85544443130493e+00 -1.43993771076202e+00 8.55842399597168e+00 635 
-1.91105103492737e+00 -1.54507851600647e+00 8.54867172241211e+00 636 
-2.73398447036743e+00 -1.70174324512482e+00 8.44226264953613e+00 638 
-1.41651570796967e+00 -2.45020866394043e+00 8.48816394805908e+00 642 
-1.23666715621948e+00 -2.61825108528137e+00 8.57128429412842e+00 643 
4.03774112462997e-01 8.01004588603973e-01 8.47030162811279e+00 644 
-2.35312318801880e+00 -2.54452507942915e-03 8.45486545562744e+00 645 
-1.94755351543427e+00 -7.13180601596832e-01 8.55652427673340e+00 646 
-4.40052866935730e-01 -7.11572527885437e-01 8.44573593139648e+00 647 
-2.11090064048767e+00 -1.00327706336975e+00 8.54168701171875e+00 648 
2.84029394388199e-01 -9.14517998695374e-01 8.55073070526123e+00 649 
-2.69228601455688e+00 -1.20492112636566e+00 8.49587440490723e+00 650 
-5.95860004425049e-01 -1.32459366321564e+00 8.49071884155273e+00 651 
-3.83949317038059e-02 -1.31331443786621e+00 8.42267799377441e+00 652 
-8.19783806800842e-01 -1.82108485698700e+00 8.49272918701172e+00 653 
2.85545587539673e-01 -1.98987472057343e+00 8.45607757568359e+00 654 
-2.79347109794617e+00 -2.19402194023132e+00 8.51353645324707e+00 655 
-8.37824821472168e-01 7.14911520481110e-01 8.46533584594727e+00 656 
-2.03000330924988e+00 1.51838406920433e-01 8.46784210205078e+00 657 
-1.09122478961945e+00 -5.59953331947327e-01 8.46841907501221e+00 658 
-2.08000445365906e+00 -7.60309815406799e-01 8.49144744873047e+00 659 
-1.76520216464996e+00 -9.41876173019409e-01 8.55627441406250e+00 660 
-1.66876161098480e+00 -1.41680490970612e+00 8.50345134735107e+00 661 
-2.57983899116516e+00 -1.54316711425781e+00 8.50213050842285e+00 662 
-2.57991385459900e+00 -1.59651076793671e+00 8.54345512390137e+00 664 
-5.41287839412689e-01 -1.61512362957001e+00 8.51377201080322e+00 665 
-1.95244348049164e+00 -1.69014203548431e+00 8.56311511993408e+00 666 
-4.25092637538910e-01 -2.20781087875366e+00 8.42250061035156e+00 668 
4.91597414016724e-01 -2.54972553253174e+00 8.45923614501953e+00 669 
-2.04473280906677e+00 5.22272773087025e-02 8.54566478729248e+00 670 
6.05340301990509e-01 -2.50731110572815e-01 8.45204544067383e+00 671 
-2.33535122871399e+00 -9.26414668560028e-01 8.55438804626465e+00 673 
-3.13117504119873e-01 -1.64966607093811e+00 8.48779869079590e+00 675 
2.38349780440331e-01 -1.99720859527588e+00 8.44548130035400e+00 676 
-8.41286242008209e-01 7.05997109413147e-01 8.47189235687256e+00 677 
-2.02702021598816e+00 6.54462337493896e-01 8.50648689270020e+00 678 
-2.41367030143738e+00 1.16384863853455e-01 8.45450019836426e+00 680 
-1.99197793006897e+00 -2.01341107487679e-01 8.46413993835449e+00 681 
-6.81603133678436e-01 -3.18446725606918e-01 8.45486545562744e+00 682 
-7.68587529659271e-01 -1.23223578929901e+00 8.55651760101318e+00 683 
-2.75629472732544e+00 -1.35998272895813e+00 8.47036361694336e+00 684 
-1.39003860950470e+00 -1.33173143863678e+00 8.47952461242676e+00 685 
-1.90434658527374e+00 -1.54657542705536e+00 8.54874897003174e+00 687 
-2.16059350967407e+00 3.15449893474579e-01 8.42794132232666e+00 688 
-8.66038024425507e-01 3.62438350915909e-01 8.45145988464355e+00 689 
-6.07483208179474e-01 3.96757125854492e-01 8.55340194702148e+00 690 
6.20207905769348e-01 3.94708454608917e-01 8.48204421997070e+00 691 
-2.44497776031494e+00 -7.90374204516411e-02 8.52895832061768e+00 692 
-2.34459686279297e+00 -1.30430340766907e-01 8.45548915863037e+00 693 
-2.74807953834534e+00 -6.45881712436676e-01 8.55923843383789e+00 694 
-2.33430337905884e+00 -1.05444502830505e+00 8.50222015380859e+00 695 
-2.33268793672323e-02 -1.39293038845062e+00 8.43925762176514e+00 696 
-1.42663168907166e+00 -1.80657708644867e+00 8.56589412689209e+00 697 
-2.24837851524353e+00 -1.89113855361938e+00 8.54331874847412e+00 698 
-2.25549387931824e+00 -2.19187283515930e+00 8.54872035980225e+00 699 
-7.13799893856049e-01 9.37324091792107e-02 8.53073501586914e+00 700 
-1.91536676883698e+00 -6.09991729259491e-01 8.50998020172119e+00 701 
-2.80706858634949e+00 -9.02599692344666e-01 8.51225662231445e+00 702 
-1.33681833744049e-01 -1.00214970111847e+00 8.47832775115967e+00 703 
-2.33905816078186e+00 -1.53854000568390e+00 8.48355102539062e+00 704 
-2.14126873016357e+00 -1.76083886623383e+00 8.48659133911133e+00 705 
-1.67884957790375e+00 -1.77661573886871e+00 8.48354244232178e+00 706 
-8.66982698440552e-01 3.58934670686722e-01 8.45209693908691e+00 707 
1.35992303490639e-01 1.34478822350502e-01 8.55612850189209e+00 708 
-1.33073210716248e-01 -3.86897362768650e-02 8.50003910064697e+00 709 
-2.99435615539551e-01 -4.79309082031250e-01 8.55409812927246e+00 710 
-2.31307840347290e+00 -1.53716909885406e+00 8.48961639404297e+00 711 
-2.31426072120667e+00 -1.54402387142181e+00 8.48404312133789e+00 712 
-2.10167503356934e+00 -1.84445691108704e+00 8.47387218475342e+00 713 
-2.38544893264771e+00 -2.13879561424255e+00 8.50430965423584e+00 714 
4.59352999925613e-01 -2.42393732070923e+00 8.46239662170410e+00 715 
-1.33204460144043e+00 1.89201802015305e-01 8.45231914520264e+00 716 
-2.03531980514526e+00 1.52573138475418e-01 8.46546936035156e+00 717 
1.51625946164131e-01 1.86571970582008e-01 8.46724605560303e+00 718 
-2.24650025367737e+00 -9.30562764406204e-02 8.55931282043457e+00 719 
-3.07127594947815e-01 -3.56273502111435e-01 8.55111980438232e+00 720 
-2.32566690444946e+00 -4.81037169694901e-01 8.48396587371826e+00 721 
-2.82339155673981e-01 -4.64758932590485e-01 8.54848003387451e+00 722 
-9.30405199527740e-01 -1.60638618469238e+00 8.50032329559326e+00 724 
3.98350507020950e-01 -2.10661792755127e+00 8.45321178436279e+00 725 
1.09472312033176e-01 8.09676229953766e-01 8.55474472045898e+00 726 
-2.03211259841919e+00 1.54088228940964e-01 8.46551036834717e+00 727 
-1.66613018512726e+00 1.48882910609245e-01 8.55476379394531e+00 728 
-1.23517990112305e+00 9.46753025054932e-02 8.45382881164551e+00 729 
-8.18373501300812e-01 -6.03126361966133e-02 8.55413150787354e+00 730 
5.45979321002960e-01 -3.07866856455803e-02 8.45156955718994e+00 731 
-2.45168972015381e+00 -5.32845973968506e-01 8.50856113433838e+00 732 
-2.35160136222839e+00 -1.26506233215332e+00 8.50285053253174e+00 733 
-2.73464012145996e+00 -1.31272625923157e+00 8.47301101684570e+00 734 
-2.04161310195923e+00 -2.22703218460083e+00 8.55929183959961e+00 735 
-2.10074114799500e+00 -2.29030299186707e+00 8.52164077758789e+00 736 
-5.20800054073334e-01 -2.62598490715027e+00 8.54843235015869e+00 737 
-5.10899364948273e-01 3.57457101345062e-01 8.55014705657959e+00 738 
-2.36666750907898e+00 -1.22142709791660e-01 8.45670318603516e+00 739 
-1.84680819511414e+00 -2.01483011245728e+00 8.56404781341553e+00 740 
-1.81982052326202e+00 -2.07046723365784e+00 8.55605602264404e+00 741 
-2.52078366279602e+00 -2.54596042633057e+00 8.48727607727051e+00 742 
-2.65598464012146e+00 4.76914972066879e-01 8.46783161163330e+00 743 
-1.72200834751129e+00 4.78783667087555e-01 8.53977108001709e+00 744 
-1.84556150436401e+00 1.09861250966787e-02 8.56057167053223e+00 745 
-9.48396325111389e-01 -2.50803023576736e-01 8.48717880249023e+00 746 
-2.02923464775085e+00 -3.82598549127579e-01 8.49988555908203e+00 747 
-1.80164849758148e+00 -7.78312206268311e-01 8.51194572448730e+00 748 
-1.78042411804199e+00 -9.65699195861816e-01 8.55604171752930e+00 749 
-2.68965005874634e+00 -1.26686573028564e+00 8.47855663299561e+00 750 
-1.97655284404755e+00 -1.24558353424072e+00 8.54260063171387e+00 751 
-2.70871520042419e+00 -1.30150115489960e+00 8.47869968414307e+00 752 
-4.37147803604603e-02 -1.34187412261963e+00 8.43953323364258e+00 753 
-3.99241268634796e-01 -1.46908199787140e+00 8.55742359161377e+00 754 
-2.46236324310303e+00 -2.44152641296387e+00 8.56651878356934e+00 755 
-2.22452497482300e+00 -2.49356508255005e+00 8.55999851226807e+00 756 
-2.66021919250488e+00 5.20480334758759e-01 8.46699142456055e+00 757 
-2.62879371643066e+00 4.69104260206223e-01 8.46722316741943e+00 758 
7.51469507813454e-02 4.56582337617874e-01 8.46557712554932e+00 759 
-1.11568760871887e+00 1.47590562701225e-01 8.55340003967285e+00 760 
-6.35340392589569e-01 4.07102033495903e-02 8.53450679779053e+00 761 
-2.15057778358459e+00 -5.41940867900848e-01 8.55768585205078e+00 762 
-5.25321483612061e-01 -6.46854937076569e-01 8.47541809082031e+00 763 
-1.71349954605103e+00 -7.43722617626190e-01 8.50475406646729e+00 764 
-1.44270038604736e+00 -1.14686644077301e+00 8.51967620849609e+00 765 
-8.00041615962982e-01 -1.20387744903564e+00 8.54921722412109e+00 766 
-8.00942957401276e-01 -1.21352195739746e+00 8.54879188537598e+00 767 
-9.70661461353302e-01 -1.28999853134155e+00 8.56054592132568e+00 768 
-2.21011233329773e+00 -1.57140326499939e+00 8.50456142425537e+00 769 
-1.55831515789032e+00 -1.85098028182983e+00 8.47698688507080e+00 770 
-2.41502881050110e+00 6.53814435005188e-01 8.54467773437500e+00 772 
9.53886583447456e-02 7.33737111091614e-01 8.55279541015625e+00 773 
-1.82945752143860e+00 6.35355412960052e-01 8.55461120605469e+00 774 
3.63801658153534e-01 1.59153923392296e-01 8.54848861694336e+00 775 
-2.44537162780762e+00 -7.68346190452576e-02 8.53009319305420e+00 776 
-2.21046161651611e+00 -1.85008957982063e-01 8.40458774566650e+00 777 
-1.89120447635651e+00 -7.81781733036041e-01 8.50002479553223e+00 778 
-2.51556158065796e+00 -9.83587086200714e-01 8.45124816894531e+00 779 
-2.06571388244629e+00 -1.09488224983215e+00 8.52403450012207e+00 780 
-2.46722054481506e+00 -1.46281361579895e+00 8.51067161560059e+00 781 
-2.56672477722168e+00 -1.67081165313721e+00 8.42056179046631e+00 782 
-1.31393861770630e+00 -2.03234934806824e+00 8.56503009796143e+00 783 
-1.48036018013954e-01 -2.10958385467529e+00 8.44860267639160e+00 784 
-8.39282751083374e-01 7.11483776569366e-01 8.46750545501709e+00 785 
-1.97779393196106e+00 9.94488745927811e-02 8.46779346466064e+00 786 
-1.97370457649231e+00 -7.01467245817184e-02 8.55828475952148e+00 787 
4.36690896749496e-01 -4.20586764812469e-01 8.47059345245361e+00 788 
-2.18136262893677e+00 -5.52071690559387e-01 8.55601692199707e+00 789 
-1.71032011508942e+00 -7.52350151538849e-01 8.50826740264893e+00 790 
5.39191365242004e-02 -6.76557183265686e-01 8.55133152008057e+00 791 
-3.37374687194824e-01 -1.02229773998260e+00 8.45981216430664e+00 792 
-7.67245233058929e-01 -1.21004056930542e+00 8.55406188964844e+00 793 
-1.30337715148926e+00 -1.29853093624115e+00 8.45833587646484e+00 794 
-5.41651427745819e-01 -1.61357319355011e+00 8.51377391815186e+00 795 
-2.33071398735046e+00 -1.78501284122467e+00 8.55761814117432e+00 796 
6.27117156982422e-01 -1.93910479545593e+00 8.44665241241455e+00 797 
-2.32647919654846e+00 -2.25811576843262e+00 8.45821380615234e+00 798 
-3.00142288208008e-01 7.72840559482574e-01 8.53986167907715e+00 799 
-2.41756224632263e+00 6.47867739200592e-01 8.54167461395264e+00 800 
-2.93065726757050e-01 5.87134718894958e-01 8.55865955352783e+00 801 
-1.70316588878632e+00 4.87520061433315e-02 8.53940296173096e+00 802 
-1.73190140724182e+00 -1.34514555335045e-01 8.55261135101318e+00 803 
-2.06805968284607e+00 -1.09868288040161e+00 8.52403831481934e+00 804 
-1.62007236480713e+00 -2.56911778450012e+00 8.47133255004883e+00 805 
-7.16193377971649e-01 1.10754638910294e-01 8.53093433380127e+00 806 
-1.91990470886230e+00 2.94115543365479e-02 8.56033897399902e+00 807 
-5.77147483825684e-01 -6.25377416610718e-01 8.47284317016602e+00 809 
-2.55525469779968e+00 -8.59449923038483e-01 8.42343235015869e+00 810 
-2.52989768981934e+00 -9.34927165508270e-01 8.43710994720459e+00 811 
-2.74072194099426e+00 -1.01158750057220e+00 8.53024578094482e+00 812 
-1.50723624229431e+00 -1.04060029983521e+00 8.55820560455322e+00 813 
-1.20816957950592e+00 -1.25872886180878e+00 8.47168254852295e+00 814 
-2.74735856056213e+00 -1.34536314010620e+00 8.47246170043945e+00 815 
-1.61108028888702e+00 -1.46003568172455e+00 8.50159835815430e+00 816 
-1.03388500213623e+00 -1.63473546504974e+00 8.54546165466309e+00 817 
-1.09206235408783e+00 -1.67581295967102e+00 8.54489707946777e+00 818 
-2.27203631401062e+00 -1.78203999996185e+00 8.51324653625488e+00 819 
-2.52236413955688e+00 -1.86411094665527e+00 8.48395156860352e+00 820 
-2.60283303260803e+00 -1.92560493946075e+00 8.56574821472168e+00 821 
-2.12574982643127e+00 -2.00958395004272e+00 8.48052692413330e+00 822 
2.90993899106979e-01 4.24399346113205e-01 8.55054569244385e+00 823 
4.66076642274857e-01 7.53128170967102e-01 8.45179557800293e+00 824 
-2.35338616371155e+00 6.01291477680206e-01 8.56047439575195e+00 825 
-2.66038298606873e+00 -4.38604325056076e-01 8.55715656280518e+00 826 
2.44241371750832e-01 -9.76731538772583e-01 8.55094242095947e+00 827 
1.35374218225479e-01 -2.39578747749329e+00 8.45426082611084e+00 828 
6.81548833847046e-01 -2.41607999801636e+00 8.54965496063232e+00 829 
-2.65745258331299e+00 -2.38871526718140e+00 8.57060527801514e+00 830 
-2.61384272575378e+00 -1.12548959255219e+00 8.48089599609375e+00 831 
-6.39039814472198e-01 -1.97665452957153e+00 8.55911254882812e+00 832 
-1.00179858505726e-01 -1.10889303684235e+00 8.44472980499268e+00 833 
6.17388308048248e-01 -1.86466836929321e+00 8.55000209808350e+00 834 
-2.60717439651489e+00 -1.11443138122559e+00 8.48044395446777e+00 835 
2.11754873394966e-01 -2.51563954353333e+00 8.44919395446777e+00 836 
-2.12465238571167e+00 6.10075533390045e-01 8.51091003417969e+00 837 
-1.46012747287750e+00 -2.03978374600410e-01 8.54173374176025e+00 838 
-9.14966106414795e-01 1.30244210362434e-01 8.55887794494629e+00 839 
-2.90473961830139e+00 -7.66300037503242e-02 8.56089115142822e+00 841 
-2.50971746444702e+00 -9.88475501537323e-01 8.44887351989746e+00 842 
-5.62913656234741e-01 -1.76138174533844e+00 8.48798370361328e+00 843 
-1.66693520545959e+00 -2.37677478790283e+00 8.48709106445312e+00 844 
-1.73392975330353e+00 -1.36519655585289e-01 8.55212688446045e+00 845 
-2.89820170402527e+00 2.80074700713158e-02 8.56217384338379e+00 846 
-1.06416678428650e+00 -2.73119181394577e-01 8.48869132995605e+00 847 
-4.46480125188828e-01 -1.04283571243286e+00 8.54847145080566e+00 848 
-2.41374969482422e+00 2.12805837392807e-01 8.46280765533447e+00 849 
-8.41489672660828e-01 -2.14765095710754e+00 8.56576156616211e+00 850 
-2.92972183227539e+00 5.98717689514160e-01 8.55349445343018e+00 851 
-2.73232221603394e+00 6.14349961280823e-01 8.55524539947510e+00 852 
-7.84511566162109e-01 -2.34152819029987e-03 8.54931259155273e+00 853 
-9.78297770023346e-01 -2.56740403175354e+00 8.52270603179932e+00 854 
-2.18660759925842e+00 -9.38152849674225e-01 8.51513671875000e+00 855 
-1.97789990901947e+00 9.79598984122276e-02 8.46928215026855e+00 856 
-4.60908472537994e-01 -2.24043995141983e-01 8.45532703399658e+00 857 
-3.85704368352890e-01 -1.66809177398682e+00 8.46910572052002e+00 858 
-5.64357995986938e-01 6.93565428256989e-01 8.47240352630615e+00 859 
-2.89150047302246e+00 2.92876157909632e-02 8.56063938140869e+00 860 
-4.31526362895966e-01 -1.57146656513214e+00 8.47056770324707e+00 861 
-2.11211299896240e+00 -1.55977559089661e+00 8.55683231353760e+00 862 
-1.15662491321564e+00 -1.95812678337097e+00 8.55703544616699e+00 865 
-1.56796157360077e+00 -2.27275562286377e+00 8.50272274017334e+00 866 
-6.93368315696716e-01 -2.94683128595352e-01 8.45444965362549e+00 867 
-4.06354874372482e-01 -1.45652437210083e+00 8.55724811553955e+00 868 
-4.70946580171585e-01 -2.66097497940063e+00 8.55476665496826e+00 869 
-1.98131847381592e+00 -8.43448996543884e-01 8.55486202239990e+00 870 
-9.02462124824524e-01 -1.82291126251221e+00 8.52077388763428e+00 871 
-2.66035246849060e+00 -2.09517478942871e+00 8.56114196777344e+00 872 
-2.03952622413635e+00 3.80759954452515e-01 8.43668556213379e+00 873 
-1.52381706237793e+00 -2.26280426979065e+00 8.50062179565430e+00 874 
-2.26474761962891e+00 -8.78138661384583e-01 8.56209182739258e+00 875 
-1.69457244873047e+00 -9.93841052055359e-01 8.55697059631348e+00 876 
-5.30236959457397e-01 -1.17798817157745e+00 8.55124473571777e+00 877 
-2.09506392478943e+00 -1.47938370704651e+00 8.56139373779297e+00 879 
-2.72517395019531e+00 -1.70420324802399e+00 8.44178295135498e+00 880 
-2.30997848510742e+00 -4.87880676984787e-01 8.49678802490234e+00 881 
-8.07893693447113e-01 -1.79155087471008e+00 8.51033687591553e+00 882 
-2.29962277412415e+00 6.47595882415771e-01 8.56379890441895e+00 883 
-2.37494993209839e+00 1.70719936490059e-01 8.46404361724854e+00 884 
-1.93618214130402e+00 -1.13319528102875e+00 8.54136657714844e+00 885 
-1.58412146568298e+00 -2.28768134117126e+00 8.49722003936768e+00 886 
-1.16545045375824e+00 -1.94979035854340e+00 8.55622386932373e+00 887 
-1.88905882835388e+00 -2.54459190368652e+00 8.48114490509033e+00 888 
-4.39812302589417e-01 -9.67775166034698e-01 8.44674873352051e+00 889 
-2.12255382537842e+00 -1.98076534271240e+00 8.47849082946777e+00 891 
-2.17725372314453e+00 -1.99829256534576e+00 8.47857475280762e+00 892 
-1.97073554992676e+00 9.59149450063705e-02 8.46649360656738e+00 893 
-2.74520009756088e-01 1.46501347422600e-01 8.47575473785400e+00 894 
-1.94530880451202e+00 -3.76147389411926e-01 8.48984527587891e+00 895 
-1.19597244262695e+00 -7.89777517318726e-01 8.51675510406494e+00 896 
-2.52985620498657e+00 -9.38129127025604e-01 8.43674659729004e+00 897 
-2.48376011848450e+00 -9.67375159263611e-01 8.44550418853760e+00 898 
-1.70598208904266e+00 -2.39450073242188e+00 8.48824787139893e+00 899 
-2.70395112037659e+00 -2.46090483665466e+00 8.55857086181641e+00 900 
-2.53743672370911e+00 1.52177169919014e-01 8.51252079010010e+00 901 
-2.76055979728699e+00 -6.30103945732117e-01 8.56179237365723e+00 902 
-2.46498084068298e+00 -1.56704902648926e+00 8.50228404998779e+00 903 
-2.04230451583862e+00 4.48961555957794e-02 8.54192447662354e+00 905 
-2.19124078750610e+00 -2.59021669626236e-01 8.52991199493408e+00 906 
-1.36424899101257e+00 -6.71839892864227e-01 8.55194854736328e+00 909 
-6.56162977218628e-01 -1.16600596904755e+00 8.46840858459473e+00 910 
-2.13268828392029e+00 -1.29249930381775e+00 8.50785541534424e+00 911 
-2.46192908287048e+00 -1.44404697418213e+00 8.50251197814941e+00 912 
-2.82788133621216e+00 -1.49506425857544e+00 8.47557353973389e+00 913 
-6.14691138267517e-01 -1.74385261535645e+00 8.49754810333252e+00 914 
-2.33735561370850e+00 -1.83238780498505e+00 8.48069858551025e+00 915 
-4.38817620277405e-01 -1.04553580284119e+00 8.54986000061035e+00 916 
-1.78576529026031e+00 -1.31366670131683e+00 8.46781539916992e+00 917 
-3.92303109169006e-01 6.35833203792572e-01 8.48453235626221e+00 918 
-4.78572905063629e-01 -2.49216854572296e-01 8.45159053802490e+00 919 
-2.27921175956726e+00 -4.58199739456177e-01 8.48560810089111e+00 920 
-2.16939330101013e+00 -7.85955071449280e-01 8.48073482513428e+00 921 
-2.26547694206238e+00 -1.78234767913818e+00 8.51807594299316e+00 922 
-5.41129708290100e-01 5.68946480751038e-01 8.48319530487061e+00 923 
-2.18295645713806e+00 -1.11500811576843e+00 8.49416446685791e+00 925 
-2.64084291458130e+00 5.26053428649902e-01 8.46476840972900e+00 926 
-1.85902655124664e+00 5.26441156864166e-01 8.55640888214111e+00 927 
-1.16052293777466e+00 3.06491583585739e-01 8.55307102203369e+00 928 
-2.61087751388550e+00 1.33360788226128e-01 8.52229595184326e+00 929 
-5.48570990562439e-01 -3.62214803695679e-01 8.55162143707275e+00 930 
-2.52320957183838e+00 -1.66685557365417e+00 8.44339942932129e+00 931 
-1.96210074424744e+00 9.97190475463867e-02 8.46618366241455e+00 932 
-2.07500004768372e+00 -1.30226552486420e+00 8.56452846527100e+00 933 
-1.80825507640839e+00 -1.30920386314392e+00 8.47881793975830e+00 934 
-2.37807703018188e+00 -2.40037250518799e+00 8.50380134582520e+00 935 
-2.01073241233826e+00 -7.54101388156414e-03 8.55638408660889e+00 936 
-2.60049414634705e+00 -2.32935816049576e-01 8.43896007537842e+00 937 
-1.92511022090912e+00 1.10539883375168e-01 8.46668243408203e+00 938 
-6.77903771400452e-01 -3.21009308099747e-01 8.45462894439697e+00 939 
-1.18640589714050e+00 -1.96025693416595e+00 8.55595874786377e+00 941 
-2.39004230499268e+00 -2.14816164970398e+00 8.50487899780273e+00 942 
-1.84781002998352e+00 5.21873295307159e-01 8.55583763122559e+00 943 
-2.59832262992859e+00 -1.09012985229492e+00 8.43889522552490e+00 945 
-5.14962077140808e-01 5.91489374637604e-01 8.47584056854248e+00 947 
-2.53208518028259e+00 -1.20026111602783e-01 8.52959537506104e+00 948 
-1.91016411781311e+00 -1.04244723916054e-01 8.48129367828369e+00 949 
-2.14360666275024e+00 -5.26223123073578e-01 8.56128883361816e+00 950 
-2.68300056457520e+00 -3.42098362743855e-02 8.55667304992676e+00 951 
-8.52958083152771e-01 -2.52185404300690e-01 8.55502986907959e+00 952 
-2.50269007682800e+00 -5.79372048377991e-01 8.52795505523682e+00 953 
-2.81448793411255e+00 -9.48031425476074e-01 8.56498718261719e+00 954 
-1.35292601585388e+00 1.79799064993858e-01 8.54417896270752e+00 955 
-2.37486767768860e+00 6.84095546603203e-02 8.45593929290771e+00 956 
-2.54665517807007e+00 -5.51526606082916e-01 8.52043151855469e+00 957 
3.89271318912506e-01 -3.55130225419998e-01 8.46189117431641e+00 960 
-1.00963211059570e+00 -6.39501631259918e-01 8.43832397460938e+00 961 
5.01043915748596e-01 -3.16173702478409e-01 8.55994224548340e+00 962 
3.05860675871372e-02 4.19702559709549e-01 8.46376514434814e+00 963 
3.77881973981857e-01 1.02894403040409e-01 8.55300712585449e+00 964 
-2.83782553672791e+00 4.01934862136841e-01 8.55892944335938e+00 965 
2.95142352581024e-01 7.23060453310609e-03 8.55518245697021e+00 967 
-1.14476191997528e+00 -5.85402965545654e-01 8.52192306518555e+00 968 
5.66783428192139e-01 6.26606106758118e-01 8.55045413970947e+00 972 
6.47701323032379e-01 6.24767839908600e-01 8.55027961730957e+00 973 
-2.91381859779358e+00 3.57593744993210e-01 8.56237792968750e+00 975 
-2.60251855850220e+00 -2.14988112449646e-01 8.43948841094971e+00 976 
-8.08235108852386e-02 1.76992547512054e+00 8.54834938049316e+00 981 
-9.66360211372375e-01 2.37774348258972e+00 8.50688457489014e+00 982 
-1.33585333824158e+00 2.50351738929749e+00 8.47724723815918e+00 983 
-1.36082610115409e-02 8.47598791122437e-01 8.49697303771973e+00 984 
-1.58458042144775e+00 -1.38775810599327e-01 8.50319385528564e+00 985 
-8.65840435028076e-01 1.89347898960114e+00 8.50230503082275e+00 986 
-1.98406398296356e-01 2.60461735725403e+00 8.54329013824463e+00 987 
-6.99519634246826e-01 6.41362071037292e-01 8.54945945739746e+00 988 
-1.21613490581512e+00 6.64102673530579e-01 8.54753017425537e+00 989 
-6.68332815170288e-01 1.59789252281189e+00 8.51307868957520e+00 990 
1.93139195442200e-01 -3.28591406345367e-01 8.46148777008057e+00 992 
6.79977655410767e-01 1.09257233142853e+00 8.52009677886963e+00 993 
-1.78673171997070e+00 1.17999422550201e+00 8.43929767608643e+00 994 
2.85639554262161e-01 2.42747259140015e+00 8.54786682128906e+00 995 
-7.99076318740845e-01 -4.34399217367172e-01 8.54983997344971e+00 996 
-6.64013564586639e-01 1.56118798255920e+00 8.49215316772461e+00 997 
-1.46807765960693e+00 1.24426019191742e+00 8.55093193054199e+00 999 
-7.74815618991852e-01 1.59617578983307e+00 8.55088806152344e+00 1000 
2.00985342264175e-01 2.24844384193420e+00 8.54428577423096e+00 1002 
