ply
format ascii 1.0
element vertex 96
property double x
property double y
property double z
property char id
end_header
-5.74182093143463e-01 1.33028435707092e+00 3.87219405174255e+00 0 
-8.70896160602570e-01 1.33299362659454e+00 3.89432740211487e+00 1 
6.09257996082306e-01 1.02195584774017e+00 3.79607391357422e+00 2 
-1.46203827857971e+00 1.33492469787598e+00 3.93982839584351e+00 3 
-1.75583839416504e+00 1.33402144908905e+00 3.96301484107971e+00 4 
1.81934051215649e-02 1.03048181533813e+00 3.83370709419250e+00 5 
-2.78770327568054e-01 1.03398442268372e+00 3.85377335548401e+00 6 
-5.75952410697937e-01 1.03703188896179e+00 3.87519001960754e+00 7 
-8.73221278190613e-01 1.03946959972382e+00 3.89768600463867e+00 8 
-1.17002499103546e+00 1.04114484786987e+00 3.92073512077332e+00 9 
-1.46587932109833e+00 1.04225349426270e+00 3.94422006607056e+00 10 
6.09924077987671e-01 7.27600872516632e-01 3.79832625389099e+00 11 
-2.05366182327271e+00 1.04246962070465e+00 3.98929882049561e+00 12 
3.14768761396408e-01 7.31553614139557e-01 3.81746006011963e+00 13 
1.81471761316061e-02 7.35104203224182e-01 3.83693957328796e+00 14 
-2.79579639434814e-01 7.38333225250244e-01 3.85697031021118e+00 15 
-5.77502965927124e-01 7.41244018077850e-01 3.87835335731506e+00 16 
-1.17297184467316e+00 7.45663344860077e-01 3.92459416389465e+00 17 
-1.46942281723022e+00 7.47177302837372e-01 3.94757866859436e+00 18 
-1.76439750194550e+00 7.48211443424225e-01 3.97043061256409e+00 19 
6.10012531280518e-01 4.31763529777527e-01 3.80131602287292e+00 20 
3.14549565315247e-01 4.35083121061325e-01 3.82065534591675e+00 21 
1.75437405705452e-02 4.38165962696075e-01 3.84018206596375e+00 22 
-2.80649185180664e-01 4.41033303737640e-01 3.86092400550842e+00 23 
-5.79139411449432e-01 4.43800717592239e-01 3.88196539878845e+00 24 
-8.77535820007324e-01 4.46204721927643e-01 3.90428853034973e+00 25 
-1.17549395561218e+00 4.48484629392624e-01 3.92713546752930e+00 26 
-1.47242939472198e+00 4.50410157442093e-01 3.94915246963501e+00 27 
-1.76779425144196e+00 4.52046215534210e-01 3.97220778465271e+00 28 
-2.06233286857605e+00 4.53574538230896e-01 3.99450111389160e+00 29 
6.09187960624695e-01 1.35055869817734e-01 3.80460000038147e+00 30 
3.13651382923126e-01 1.37662395834923e-01 3.82436871528625e+00 31 
1.63876898586750e-02 1.40288636088371e-01 3.84395766258240e+00 32 
-2.82031923532486e-01 1.42815187573433e-01 3.86437511444092e+00 33 
-5.80752372741699e-01 1.45395100116730e-01 3.88595533370972e+00 34 
-8.79442572593689e-01 1.47865697741508e-01 3.90744924545288e+00 35 
-1.17767751216888e+00 1.50313451886177e-01 3.92901015281677e+00 36 
-1.47491884231567e+00 1.52679473161697e-01 3.95138478279114e+00 37 
-1.77042424678802e+00 1.54894858598709e-01 3.97445964813232e+00 38 
-2.06519961357117e+00 1.57182350754738e-01 3.99690198898315e+00 39 
-2.06687259674072e+00 -1.39592856168747e-01 3.99962973594666e+00 40 
-1.77238011360168e+00 -1.42570495605469e-01 3.97713327407837e+00 41 
-1.47676277160645e+00 -1.45428657531738e-01 3.95410871505737e+00 42 
-1.17953252792358e+00 -1.48172348737717e-01 3.93164181709290e+00 43 
-8.81313085556030e-01 -1.50870397686958e-01 3.90991973876953e+00 44 
-5.82565188407898e-01 -1.53342619538307e-01 3.88909959793091e+00 45 
-2.83806294202805e-01 -1.55668154358864e-01 3.86828851699829e+00 46 
1.46804628893733e-02 -1.57879039645195e-01 3.84822559356689e+00 47 
3.11857223510742e-01 -1.59987807273865e-01 3.82839488983154e+00 48 
6.07588946819305e-01 -1.62026122212410e-01 3.80791330337524e+00 49 
-2.06791400909424e+00 -4.35858279466629e-01 4.00232267379761e+00 50 
-1.77348005771637e+00 -4.39482688903809e-01 3.98004746437073e+00 51 
-1.47805917263031e+00 -4.42955970764160e-01 3.95718026161194e+00 52 
-1.18101596832275e+00 -4.46091234683990e-01 3.93489122390747e+00 53 
-8.82997274398804e-01 -4.49064821004868e-01 3.91257023811340e+00 54 
-5.84428608417511e-01 -4.51511949300766e-01 3.89160180091858e+00 55 
-2.85911917686462e-01 -4.53651845455170e-01 3.87199234962463e+00 56 
1.23530179262161e-02 -4.55546706914902e-01 3.85241174697876e+00 57 
3.09287011623383e-01 -4.57091510295868e-01 3.83239793777466e+00 58 
6.04458272457123e-01 -4.58414405584335e-01 3.81161642074585e+00 59 
-2.06814861297607e+00 -7.31241464614868e-01 4.00532531738281e+00 60 
-1.77394223213196e+00 -7.35637307167053e-01 3.98312854766846e+00 61 
-1.47884869575500e+00 -7.39664554595947e-01 3.96034717559814e+00 62 
-1.18221485614777e+00 -7.43107140064240e-01 3.93747544288635e+00 63 
-8.84564816951752e-01 -7.46303200721741e-01 3.91538381576538e+00 64 
-5.86446702480316e-01 -7.48689413070679e-01 3.89435100555420e+00 65 
-2.88424462080002e-01 -7.50638246536255e-01 3.87460565567017e+00 66 
9.39746946096420e-03 -7.52135038375854e-01 3.85595059394836e+00 67 
3.05875778198242e-01 -7.53244817256927e-01 3.83627796173096e+00 68 
-2.06756424903870e+00 -1.02483665943146e+00 4.00812292098999e+00 69 
6.00648224353790e-01 -7.53785669803619e-01 3.81539869308472e+00 70 
-1.47900295257568e+00 -1.03469610214233e+00 3.96311211585999e+00 71 
-1.18289601802826e+00 -1.03845322132111e+00 3.94024920463562e+00 72 
-8.85918855667114e-01 -1.04181551933289e+00 3.91830968856812e+00 73 
-5.88459849357605e-01 -1.04418671131134e+00 3.89720606803894e+00 74 
-2.91188210248947e-01 -1.04593992233276e+00 3.87717556953430e+00 75 
5.86541090160608e-03 -1.04704689979553e+00 3.85831308364868e+00 76 
-1.77298533916473e+00 -1.32158398628235e+00 3.98848891258240e+00 77 
-1.47881996631622e+00 -1.32735145092010e+00 3.96592688560486e+00 78 
5.95893561840057e-01 -1.04738712310791e+00 3.81888794898987e+00 79 
-1.18348252773285e+00 -1.33154428005219e+00 3.94342494010925e+00 80 
-8.87096822261810e-01 -1.33553218841553e+00 3.92153859138489e+00 81 
-5.90212583541870e-01 -1.33749723434448e+00 3.90007853507996e+00 82 
-2.94214159250259e-01 -1.33892261981964e+00 3.87959170341492e+00 83 
1.78768555633724e-03 -1.33947539329529e+00 3.86008834838867e+00 84 
2.96659916639328e-01 -1.33985078334808e+00 3.84130167961121e+00 85 
-2.05840969085693e+00 7.49111771583557e-01 3.99214029312134e+00 86 
-8.75503718852997e-01 7.43697464466095e-01 3.90114545822144e+00 87 
-1.16696190834045e+00 1.33428525924683e+00 3.91677284240723e+00 88 
-2.77876853942871e-01 1.32738173007965e+00 3.85137677192688e+00 89 
1.79613959044218e-02 1.32341480255127e+00 3.83129978179932e+00 90 
3.13314676284790e-01 1.31914055347443e+00 3.81220817565918e+00 91 
5.90104818344116e-01 -1.33772826194763e+00 3.82118749618530e+00 92 
6.06851875782013e-01 1.31320583820343e+00 3.79136395454407e+00 93 
-2.06587290763855e+00 -1.31596839427948e+00 4.01006746292114e+00 94 
-2.04846549034119e+00 1.33392643928528e+00 3.98546195030212e+00 95 
