ply
format ascii 1.0
element vertex 689
property double x
property double y
property double z
property short id
end_header
1.42919886112213e+00 7.39699959754944e-01 8.30028247833252e+00 366 
1.27398502826691e+00 -8.41163456439972e-01 8.39530658721924e+00 367 
1.59415841102600e+00 3.23668062686920e-01 8.31122303009033e+00 368 
7.53063738346100e-01 -2.32355833053589e+00 8.41602897644043e+00 370 
1.29515707492828e+00 -2.50913023948669e+00 8.29652786254883e+00 371 
2.69071042537689e-01 -1.62812983989716e+00 8.40911960601807e+00 372 
1.06441184878349e-01 -2.57334780693054e+00 8.37368297576904e+00 373 
1.50298058986664e+00 -2.45041370391846e+00 8.25561046600342e+00 374 
-1.04418575763702e+00 7.06269815564156e-02 8.31931400299072e+00 377 
-2.26163491606712e-01 6.03493988513947e-01 8.39299869537354e+00 378 
-1.10355734825134e+00 4.50822710990906e-01 8.40561103820801e+00 379 
6.08286082744598e-01 -1.11002683639526e+00 8.39734840393066e+00 381 
-8.77493619918823e-01 -2.34974813461304e+00 8.31336021423340e+00 382 
-1.72093713283539e+00 5.11877596378326e-01 8.40755367279053e+00 383 
-3.62882018089294e-01 4.78421747684479e-01 8.38441562652588e+00 384 
4.69314396381378e-01 -1.29366248846054e-01 8.30205249786377e+00 385 
-3.71251285076141e-01 -1.22583723068237e+00 8.40503406524658e+00 386 
-8.75521302223206e-01 -1.90724647045135e+00 8.38534736633301e+00 387 
-9.34052705764771e-01 -1.97270441055298e+00 8.38646602630615e+00 388 
3.68795543909073e-01 6.77507638931274e-01 8.33716773986816e+00 389 
-1.33096659183502e+00 4.68807667493820e-01 8.40728950500488e+00 390 
-7.15209364891052e-01 -1.93235248327255e-01 8.40286731719971e+00 393 
-8.46575379371643e-01 -1.85994434356689e+00 8.40813827514648e+00 394 
3.05628061294556e-01 2.92626261711121e-01 8.39762687683105e+00 395 
2.15157419443130e-01 -3.25447954237461e-02 8.39839553833008e+00 396 
1.22763514518738e+00 -3.01323086023331e-01 8.31272125244141e+00 397 
-3.12521755695343e-01 -5.53715407848358e-01 8.40836620330811e+00 398 
-2.31646314263344e-01 -6.55046582221985e-01 8.33846759796143e+00 399 
-7.57798492908478e-01 -2.01004743576050e+00 8.38559627532959e+00 400 
-1.06853818893433e+00 -2.21192121505737e+00 8.41674613952637e+00 401 
-1.42161512374878e+00 -2.58336114883423e+00 8.34769058227539e+00 402 
-9.91672933101654e-01 -7.26109296083450e-02 8.40491104125977e+00 403 
-1.65344905853271e+00 -2.19231271743774e+00 8.41648101806641e+00 404 
-7.53019809722900e-01 -2.30239725112915e+00 8.41140270233154e+00 405 
1.26499617099762e+00 -2.16116356849670e+00 8.29791736602783e+00 406 
-1.48968052864075e+00 -5.32771170139313e-01 8.41200733184814e+00 408 
-2.28586971759796e-01 -1.99831831455231e+00 8.35090923309326e+00 409 
1.26165926456451e+00 -2.16492176055908e+00 8.29787158966064e+00 410 
7.44199216365814e-01 -5.12497961521149e-01 8.39598560333252e+00 412 
9.91463959217072e-01 -5.57796776294708e-01 8.31435012817383e+00 413 
-6.91850185394287e-01 -1.93812918663025e+00 8.38695335388184e+00 414 
-1.30396139621735e+00 -2.00399065017700e+00 8.34300231933594e+00 415 
5.55629491806030e-01 -2.61269807815552e+00 8.39883613586426e+00 416 
-1.63554143905640e+00 4.25940006971359e-01 8.30765438079834e+00 417 
6.88767075538635e-01 -6.37457251548767e-01 8.29568004608154e+00 418 
-1.70135140419006e-01 -8.03628921508789e-01 8.36689949035645e+00 419 
8.82051706314087e-01 -1.70910918712616e+00 8.40401840209961e+00 420 
1.72841882705688e+00 -1.78056895732880e+00 8.39915180206299e+00 421 
1.34481340646744e-01 -2.21431279182434e+00 8.40680503845215e+00 422 
1.51572465896606e+00 -2.38285493850708e+00 8.30982589721680e+00 423 
-2.89503514766693e-01 -3.62620055675507e-01 8.32361888885498e+00 424 
-1.77324104309082e+00 -7.44534850120544e-01 8.40723037719727e+00 425 
-5.07973015308380e-01 -1.96747004985809e+00 8.32919120788574e+00 426 
1.39977884292603e+00 1.55287399888039e-01 8.33078956604004e+00 427 
-1.75424480438232e+00 -6.93480670452118e-01 8.40683746337891e+00 428 
-1.78552067279816e+00 -7.01979875564575e-01 8.40706062316895e+00 429 
-1.57403528690338e+00 5.59905171394348e-02 8.37134361267090e+00 430 
-1.12670361995697e+00 -9.20294284820557e-01 8.36471557617188e+00 432 
1.25068828463554e-01 -8.93407821655273e-01 8.40484333038330e+00 433 
3.79926562309265e-01 -8.74984681606293e-01 8.38698101043701e+00 434 
-1.74114394187927e+00 8.57033729553223e-02 8.40800571441650e+00 435 
-1.00438427925110e+00 1.14449106156826e-01 8.31857490539551e+00 436 
-1.73595321178436e+00 5.00477626919746e-02 8.40632915496826e+00 437 
-9.60155308246613e-01 3.05146370083094e-02 8.31865024566650e+00 438 
-9.56201255321503e-01 -1.35459750890732e-01 8.40936279296875e+00 439 
1.31285022944212e-02 -6.70794785022736e-01 8.28997611999512e+00 440 
-1.09382021427155e+00 3.21418881416321e-01 8.26024532318115e+00 442 
-1.61699974536896e+00 -1.76872253417969e+00 8.29650402069092e+00 443 
-1.23826257884502e-01 -2.60502910614014e+00 8.41931152343750e+00 444 
-1.59060060977936e+00 5.21220341324806e-02 8.37331008911133e+00 445 
4.28667426109314e-01 -4.69793647527695e-01 8.29787731170654e+00 446 
-1.75119733810425e+00 -7.44809329509735e-01 8.40845870971680e+00 447 
-1.55744755268097e+00 -2.15469217300415e+00 8.41647148132324e+00 448 
1.77376270294189e+00 -2.41629266738892e+00 8.39459228515625e+00 449 
-8.33850502967834e-01 -2.43161678314209e+00 8.32440090179443e+00 450 
1.47753357887268e+00 -5.13272583484650e-01 8.40082931518555e+00 451 
1.37992048263550e+00 -5.71006238460541e-01 8.39579105377197e+00 452 
1.37547016143799e+00 -5.89914560317993e-01 8.40083122253418e+00 453 
-1.33118355274200e+00 -2.08939671516418e+00 8.41816234588623e+00 454 
8.50796818733215e-01 -2.21496796607971e+00 8.24769210815430e+00 455 
9.28578227758408e-02 4.78056669235229e-01 8.30843257904053e+00 456 
-9.83933091163635e-01 -5.10667681694031e-01 8.37764930725098e+00 457 
1.72448289394379e+00 -2.47507429122925e+00 8.39573669433594e+00 458 
4.50083971023560e-01 7.23212659358978e-01 8.40641117095947e+00 459 
1.64866745471954e+00 -6.15046545863152e-02 8.39119052886963e+00 460 
-1.17814266681671e+00 -7.33116328716278e-01 8.33811283111572e+00 462 
-1.58750116825104e-01 -1.33995962142944e+00 8.33878135681152e+00 463 
-1.11765170097351e+00 -1.59135401248932e+00 8.34759426116943e+00 464 
-1.74623501300812e+00 -2.31389194726944e-01 8.40032386779785e+00 466 
5.22043108940125e-01 -2.65827387571335e-01 8.30151367187500e+00 467 
1.72770357131958e+00 -4.56487655639648e-01 8.36996936798096e+00 468 
-9.40915346145630e-01 -9.12816584110260e-01 8.40870285034180e+00 469 
-7.42837011814117e-01 -2.10983180999756e+00 8.41385173797607e+00 470 
1.51132494211197e-01 -2.74068832397461e-01 8.40437889099121e+00 471 
-1.41332066059113e+00 5.60460686683655e-01 8.39692497253418e+00 472 
-1.40040647983551e+00 1.52320042252541e-01 8.31832695007324e+00 473 
-9.51184749603271e-01 -1.32490992546082e-01 8.40442180633545e+00 474 
-1.54300892353058e+00 -1.72899627685547e+00 8.27917957305908e+00 475 
-3.69702130556107e-01 -1.15463364124298e+00 8.34875392913818e+00 476 
6.15446388721466e-01 -1.53351056575775e+00 8.29791545867920e+00 477 
-6.36609911918640e-01 -4.42355513572693e-01 8.40111637115479e+00 478 
7.43918061256409e-01 -5.12358665466309e-01 8.39588356018066e+00 479 
-1.13302755355835e+00 -1.01760566234589e+00 8.36540031433105e+00 480 
4.18117612600327e-01 -1.23887240886688e+00 8.36131191253662e+00 481 
7.07593739032745e-01 -4.04932916164398e-01 8.39804267883301e+00 483 
-1.32931220531464e+00 -2.40931105613708e+00 8.41262626647949e+00 484 
1.71543669700623e+00 -2.38481402397156e+00 8.39440250396729e+00 485 
4.65472973883152e-02 1.68003380298615e-01 8.40884208679199e+00 486 
1.33435904979706e+00 -8.28805625438690e-01 8.39333629608154e+00 487 
-1.16817021369934e+00 -8.01372289657593e-01 8.40801906585693e+00 489 
-1.02392053604126e+00 -2.53694343566895e+00 8.41311454772949e+00 490 
-1.51205027103424e+00 -7.63085782527924e-01 8.34821033477783e+00 491 
-4.61921393871307e-01 -6.73059344291687e-01 8.40244007110596e+00 493 
1.11990869045258e+00 1.34564802050591e-01 8.40489387512207e+00 495 
-1.39901959896088e+00 -1.52326989173889e+00 8.36291408538818e+00 496 
1.51473486423492e+00 -2.38155746459961e+00 8.31117057800293e+00 497 
-1.11487448215485e+00 -6.05967998504639e-01 8.40870761871338e+00 499 
-1.14490985870361e+00 -6.16891622543335e-01 8.40709686279297e+00 500 
-6.74601912498474e-01 -7.99970328807831e-01 8.35934925079346e+00 501 
1.06207525730133e+00 -6.71573042869568e-01 8.39924430847168e+00 502 
-1.68229794502258e+00 -1.08683764934540e+00 8.38255786895752e+00 503 
-2.56951302289963e-01 -1.32593858242035e+00 8.30958557128906e+00 504 
-1.23617422580719e+00 -2.30288696289062e+00 8.31107902526855e+00 506 
-5.67556202411652e-01 -2.39393281936646e+00 8.34235382080078e+00 507 
-1.50877252221107e-01 -2.62467408180237e+00 8.42103099822998e+00 508 
9.68869447708130e-01 5.87025165557861e-01 8.31445026397705e+00 509 
-1.33107626438141e+00 -8.04918557405472e-02 8.30754280090332e+00 510 
-7.14611113071442e-01 -1.91648796200752e-01 8.40304565429688e+00 511 
-1.01445126533508e+00 -1.14839839935303e+00 8.37546443939209e+00 513 
1.00757420063019e+00 -1.38003540039062e+00 8.28892326354980e+00 514 
-3.62822443246841e-01 -1.83042764663696e+00 8.41589450836182e+00 515 
1.57005655765533e+00 4.41692829132080e-01 8.32811450958252e+00 516 
3.26030075550079e-01 -3.41018468141556e-01 8.30492877960205e+00 517 
-1.50263273715973e+00 -9.43277955055237e-01 8.27699089050293e+00 518 
-7.22859799861908e-01 -9.88438904285431e-01 8.40679073333740e+00 519 
-4.65589523315430e-01 -1.07789599895477e+00 8.40834140777588e+00 520 
2.35816955566406e-01 -1.22684586048126e+00 8.39804649353027e+00 521 
-1.50597989559174e+00 -1.65847229957581e+00 8.39542198181152e+00 522 
-1.19036900997162e+00 -1.83213543891907e+00 8.37031650543213e+00 523 
-1.39502859115601e+00 -2.14075517654419e+00 8.36105346679688e+00 524 
1.14370012283325e+00 -2.15051078796387e+00 8.39741992950439e+00 525 
9.55515384674072e-01 6.18854045867920e-01 8.31299972534180e+00 526 
-1.27505111694336e+00 4.29143160581589e-01 8.41107273101807e+00 527 
-1.41963100433350e+00 -1.56510621309280e-01 8.38186931610107e+00 528 
-1.31877982616425e+00 -2.06283032894135e-01 8.30816173553467e+00 529 
-8.52008461952209e-01 -8.34484577178955e-01 8.35149669647217e+00 530 
-1.01664757728577e+00 -1.15221595764160e+00 8.37547206878662e+00 531 
7.29825496673584e-01 -1.64189743995667e+00 8.33724784851074e+00 532 
-2.44877234101295e-01 -2.04953169822693e+00 8.41490745544434e+00 533 
9.06476676464081e-01 -2.09019947052002e+00 8.29841518402100e+00 534 
1.37530654668808e-01 6.63889050483704e-01 8.32204914093018e+00 535 
-1.02956855297089e+00 5.77017724514008e-01 8.35789012908936e+00 536 
1.34796047210693e+00 2.80814409255981e-01 8.34243202209473e+00 537 
3.60856592655182e-01 1.44254053011537e-02 8.38356876373291e+00 538 
8.40535998344421e-01 -8.90931427478790e-01 8.30439281463623e+00 539 
6.86784923076630e-01 -1.02427423000336e+00 8.30960273742676e+00 540 
-7.73377180099487e-01 -1.24911904335022e+00 8.31889057159424e+00 541 
5.03510117530823e-01 -1.61327242851257e+00 8.36318397521973e+00 542 
-3.70633639395237e-02 -1.69136285781860e+00 8.39468765258789e+00 543 
-1.06871008872986e+00 -1.80710446834564e+00 8.33872032165527e+00 544 
-1.19691729545593e+00 -1.83197629451752e+00 8.36519813537598e+00 545 
-6.12451255321503e-01 -1.80858445167542e+00 8.33504581451416e+00 546 
-1.18498265743256e+00 -2.56005257368088e-01 8.25777816772461e+00 547 
5.76104640960693e-01 -7.21134483814240e-01 8.29583549499512e+00 548 
-1.75689303874969e+00 -1.02645611763000e+00 8.41648578643799e+00 549 
7.67347157001495e-01 -1.28209125995636e+00 8.29488849639893e+00 550 
9.90275621414185e-01 -1.30202305316925e+00 8.27258682250977e+00 551 
-1.73036921024323e+00 -1.52429223060608e+00 8.32712841033936e+00 552 
-1.24485766887665e+00 -1.59187173843384e+00 8.34193706512451e+00 553 
-1.24582278728485e+00 -1.59866499900818e+00 8.33644485473633e+00 554 
-1.02716040611267e+00 -1.88832032680511e+00 8.32614231109619e+00 555 
1.67060506343842e+00 6.72240316867828e-01 8.39208889007568e+00 556 
-1.64416241645813e+00 3.82873922586441e-01 8.32071304321289e+00 557 
4.66019138693810e-02 -5.81323727965355e-02 8.40408039093018e+00 558 
-1.20917642116547e+00 -1.16859555244446e+00 8.34085750579834e+00 559 
-1.13489615917206e+00 -1.42416465282440e+00 8.39830398559570e+00 561 
-1.61869525909424e+00 -2.56412100791931e+00 8.32724475860596e+00 562 
6.90615534782410e-01 4.25678119063377e-02 8.35112953186035e+00 563 
-1.34078419208527e+00 -1.98785737156868e-01 8.30939006805420e+00 564 
-1.39856040477753e+00 -1.86529183387756e+00 8.35887241363525e+00 565 
-1.02286398410797e+00 -2.42172265052795e+00 8.31598091125488e+00 566 
-1.41888940334320e+00 -2.59250926971436e+00 8.34005641937256e+00 567 
-7.59539902210236e-02 5.32087147235870e-01 8.40345001220703e+00 568 
-7.23540604114532e-01 4.13148224353790e-01 8.39029693603516e+00 569 
-3.30488115549088e-01 1.39572873711586e-01 8.30352401733398e+00 570 
-2.32135012745857e-01 4.93510775268078e-02 8.30488395690918e+00 571 
-1.02312386035919e+00 -2.31740437448025e-02 8.39269542694092e+00 572 
-1.28941130638123e+00 -5.51278293132782e-01 8.33625698089600e+00 573 
-7.10689008235931e-01 -6.25043392181396e-01 8.39905071258545e+00 574 
-7.41124689579010e-01 -8.09820473194122e-01 8.40356349945068e+00 575 
-1.31859648227692e+00 -1.08713340759277e+00 8.35313987731934e+00 576 
1.33427035808563e+00 -1.12932944297791e+00 8.41347599029541e+00 577 
-1.64200150966644e+00 -1.37162649631500e+00 8.33170509338379e+00 578 
-1.02052021026611e+00 -1.34970045089722e+00 8.41558456420898e+00 579 
7.29281008243561e-02 -1.31200706958771e+00 8.41053581237793e+00 580 
1.27129423618317e+00 -2.15120124816895e+00 8.29740238189697e+00 581 
-1.42521464824677e+00 -2.39823102951050e+00 8.34896659851074e+00 582 
5.54920494556427e-01 -2.61051869392395e+00 8.39746570587158e+00 583 
7.97013998031616e-01 4.99742291867733e-02 8.34892177581787e+00 584 
2.76475790888071e-02 -9.82364825904369e-03 8.40397453308105e+00 585 
6.15103065967560e-01 -1.74691319465637e-01 8.40072154998779e+00 586 
1.70534181594849e+00 -1.79217886924744e+00 8.39707279205322e+00 587 
-9.66244339942932e-01 -2.24741959571838e+00 8.41706466674805e+00 588 
1.44493794441223e+00 -2.07064867019653e+00 8.30216121673584e+00 589 
-9.79831755161285e-01 9.98389124870300e-02 8.31712150573730e+00 590 
6.96464002132416e-01 -3.66871535778046e-01 8.39951896667480e+00 591 
2.12727695703506e-01 -9.58852887153625e-01 8.39623737335205e+00 592 
-7.50807344913483e-01 -1.25537812709808e+00 8.32187843322754e+00 593 
-1.29108870029449e+00 -1.32483923435211e+00 8.35501098632812e+00 594 
7.23331868648529e-02 -1.32219707965851e+00 8.41094493865967e+00 595 
1.05778586864471e+00 -2.01588034629822e+00 8.40190410614014e+00 596 
-1.29880464076996e+00 -2.19155192375183e+00 8.35716915130615e+00 597 
1.55933940410614e+00 -2.03680801391602e+00 8.30061817169189e+00 599 
1.07161140441895e+00 7.95025408267975e-01 8.40235900878906e+00 600 
-8.63862574100494e-01 5.08186638355255e-01 8.40547657012939e+00 601 
-1.02253818511963e+00 8.20723995566368e-02 8.31752109527588e+00 602 
1.12409961223602e+00 2.07712456583977e-01 8.31153964996338e+00 603 
-6.58403992652893e-01 8.96839946508408e-02 8.40503787994385e+00 604 
-1.75647568702698e+00 -1.23285543918610e+00 8.30541896820068e+00 605 
4.65655624866486e-01 -1.38807988166809e+00 8.34075355529785e+00 606 
6.39543235301971e-01 -1.46651387214661e+00 8.40600109100342e+00 607 
-9.20011281967163e-01 -2.22336077690125e+00 8.41272830963135e+00 608 
-1.42415535449982e+00 -2.58269143104553e+00 8.34554195404053e+00 609 
-1.58356213569641e+00 2.46361852623522e-03 8.37434196472168e+00 610 
-1.33592569828033e+00 -7.76445716619492e-02 8.30803489685059e+00 611 
1.59040904045105e+00 8.89936275780201e-03 8.31676197052002e+00 612 
-1.26390659809113e+00 -5.57944595813751e-01 8.35576820373535e+00 613 
7.24193871021271e-01 -4.73046451807022e-01 8.39689254760742e+00 614 
-7.37139701843262e-01 -1.01238298416138e+00 8.40659236907959e+00 615 
-1.01396286487579e+00 -1.35647344589233e+00 8.41523075103760e+00 616 
-1.69814324378967e+00 -2.26822376251221e+00 8.36642265319824e+00 617 
-3.33379030227661e-01 -2.46452975273132e+00 8.33931159973145e+00 619 
1.39110171794891e+00 7.09805190563202e-01 8.30558967590332e+00 620 
-6.91883742809296e-01 -1.01401386782527e-02 8.38995456695557e+00 621 
-1.70063591003418e+00 -7.26598739624023e-01 8.41111469268799e+00 622 
-1.06175148487091e+00 -1.05947983264923e+00 8.39292621612549e+00 623 
-1.49089527130127e+00 -1.73132610321045e+00 8.27421283721924e+00 624 
2.35652804374695e-01 -1.82627344131470e+00 8.34286212921143e+00 625 
1.33020484447479e+00 -1.95901310443878e+00 8.30514240264893e+00 626 
-1.16809010505676e+00 -2.23541927337646e+00 8.40020656585693e+00 627 
-1.64966106414795e+00 4.25684094429016e-01 8.31987953186035e+00 628 
-1.61712515354156e+00 3.76002550125122e-01 8.32007503509521e+00 629 
-1.01727223396301e+00 8.15103054046631e-02 8.31985282897949e+00 630 
2.81903892755508e-01 6.42992705106735e-02 8.37996292114258e+00 631 
-9.04893338680267e-01 -3.57945524156094e-02 8.41091918945312e+00 632 
-9.54894483089447e-01 -1.35561615228653e-01 8.40898227691650e+00 633 
4.90133434534073e-01 -6.59935235977173e-01 8.32522392272949e+00 634 
-6.78004860877991e-01 -7.91563332080841e-01 8.35589790344238e+00 635 
-1.47696781158447e+00 -1.00487744808197e+00 8.29040241241455e+00 636 
-1.67821407318115e+00 -1.40489637851715e+00 8.32586765289307e+00 637 
-1.50758719444275e+00 -1.60589909553528e+00 8.35465431213379e+00 638 
-1.44119989871979e+00 -1.92049145698547e+00 8.33669567108154e+00 639 
-1.04585349559784e+00 -2.05180907249451e+00 8.33274745941162e+00 640 
6.36346995830536e-01 -2.19545173645020e+00 8.27308845520020e+00 641 
1.20584893226624e+00 -2.52446746826172e+00 8.29402923583984e+00 642 
1.55034255981445e+00 -2.50456190109253e+00 8.30803203582764e+00 643 
-1.41193521022797e+00 5.64579606056213e-01 8.39612007141113e+00 644 
-1.15102517604828e+00 2.38793954253197e-01 8.28067684173584e+00 645 
1.23558655381203e-01 3.24504464864731e-01 8.30197811126709e+00 646 
-5.30366599559784e-01 -2.58789753913879e+00 8.32255554199219e+00 647 
1.40662208199501e-01 6.72781229019165e-01 8.31558132171631e+00 648 
-5.29136419296265e-01 5.02327084541321e-01 8.38920879364014e+00 649 
-1.39437150955200e+00 3.48871946334839e-02 8.30724811553955e+00 650 
-1.03123188018799e+00 -5.94426512718201e-01 8.36080074310303e+00 651 
-8.81037235260010e-01 -6.65893018245697e-01 8.36132907867432e+00 652 
1.26324021816254e+00 -5.87744534015656e-01 8.39810943603516e+00 653 
2.36412420868874e-01 -1.21731233596802e+00 8.39846420288086e+00 654 
-1.68713319301605e+00 -1.43071722984314e+00 8.32357311248779e+00 655 
-5.55262744426727e-01 -1.49448227882385e+00 8.35271835327148e+00 656 
-8.48272621631622e-01 -1.58742463588715e+00 8.39958763122559e+00 657 
-4.93621140718460e-01 -1.87845373153687e+00 8.32874393463135e+00 658 
-1.51852369308472e+00 -1.98353791236877e+00 8.41747951507568e+00 659 
1.11829769611359e+00 1.30322426557541e-01 8.40375614166260e+00 661 
1.29612338542938e+00 -8.99117052555084e-01 8.39834785461426e+00 663 
-1.28044664859772e+00 -1.11671864986420e+00 8.35432720184326e+00 664 
-1.62872231006622e+00 -1.27592968940735e+00 8.34860706329346e+00 665 
1.42466950416565e+00 7.50122487545013e-01 8.30032539367676e+00 666 
-1.03482186794281e+00 4.74025934934616e-01 8.40620040893555e+00 667 
-5.57036280632019e-01 3.04932206869125e-01 8.36798954010010e+00 668 
1.26224541664124e+00 4.20799344778061e-01 8.39799690246582e+00 669 
-1.72307896614075e+00 -4.92956817150116e-01 8.40991973876953e+00 670 
-1.76834630966187e+00 -6.92857682704926e-01 8.40960884094238e+00 671 
6.53741300106049e-01 -1.63369154930115e+00 8.33795738220215e+00 672 
1.52405142784119e+00 -1.81169569492340e+00 8.39987277984619e+00 673 
-1.25312820076942e-01 -2.13759112358093e+00 8.33683681488037e+00 674 
-1.58245885372162e+00 -2.41139912605286e+00 8.42139530181885e+00 675 
-1.06603991985321e+00 -2.39892673492432e+00 8.41115665435791e+00 676 
-1.55250406265259e+00 -2.44734477996826e+00 8.42033767700195e+00 677 
-1.32176089286804e+00 -2.09292396903038e-01 8.30917072296143e+00 678 
-1.54761016368866e+00 -1.18415021896362e+00 8.33326721191406e+00 679 
9.23189282417297e-01 -1.10241150856018e+00 8.29439830780029e+00 680 
1.65361177921295e+00 -1.82549035549164e+00 8.39726638793945e+00 681 
1.27346277236938e+00 -2.47948145866394e+00 8.29852962493896e+00 682 
4.18633341789246e-01 -1.97409963607788e+00 8.40807723999023e+00 683 
-1.17450690269470e+00 -5.53382992744446e-01 8.38335037231445e+00 684 
-7.42353320121765e-01 -2.10249781608582e+00 8.40680122375488e+00 685 
-1.60176575183868e+00 -2.39009714126587e+00 8.42667102813721e+00 686 
-1.04624223709106e+00 7.13322609663010e-02 8.31948566436768e+00 687 
1.13199353218079e+00 1.82130113244057e-01 8.31608486175537e+00 688 
6.48041963577271e-01 2.42652501910925e-02 8.35179615020752e+00 689 
-1.44847059249878e+00 -2.71060466766357e-01 8.38008213043213e+00 690 
1.65030729770660e+00 -6.32788538932800e-02 8.39011287689209e+00 691 
3.13750892877579e-01 -3.17933768033981e-01 8.30475234985352e+00 692 
1.41885387897491e+00 -3.58746498823166e-01 8.31875038146973e+00 693 
-1.41201305389404e+00 -6.06174409389496e-01 8.36069869995117e+00 694 
-3.75130027532578e-01 -7.12299108505249e-01 8.40712833404541e+00 695 
2.12118446826935e-01 -9.54966604709625e-01 8.39636611938477e+00 696 
-1.19784331321716e+00 -1.14726603031158e+00 8.34099864959717e+00 697 
-1.66722345352173e+00 -1.38347947597504e+00 8.32614803314209e+00 698 
-1.17710307240486e-01 -1.68506348133087e+00 8.31346035003662e+00 699 
-1.33105742931366e+00 -2.19006180763245e+00 8.34465217590332e+00 700 
-1.01260244846344e+00 -2.32773256301880e+00 8.37329006195068e+00 701 
1.23769843578339e+00 -6.89445257186890e-01 8.38960170745850e+00 702 
1.51293981075287e+00 -8.40317845344543e-01 8.39783477783203e+00 703 
-9.83034729957581e-01 -1.34558987617493e+00 8.41110229492188e+00 704 
-1.14454400539398e+00 -2.13171625137329e+00 8.42462253570557e+00 705 
1.34566903114319e+00 -2.26317667961121e+00 8.31165504455566e+00 706 
-1.39995718002319e+00 4.96092528104782e-01 8.39455509185791e+00 707 
-6.68382048606873e-02 5.09703338146210e-01 8.40358448028564e+00 708 
-8.31056237220764e-01 -5.16931973397732e-02 8.41104316711426e+00 709 
6.10947981476784e-02 -2.82438486814499e-01 8.33739089965820e+00 710 
-1.52057921886444e+00 -6.26109659671783e-01 8.37267589569092e+00 711 
-1.01419544219971e+00 -1.32134962081909e+00 8.41539287567139e+00 712 
-8.03134024143219e-01 -1.61803591251373e+00 8.39776325225830e+00 713 
-1.74703073501587e+00 -4.30329777300358e-02 8.41329479217529e+00 714 
-7.70635068416595e-01 -2.04847860336304e+00 8.41471385955811e+00 715 
1.58842647075653e+00 6.16366267204285e-01 8.39659881591797e+00 716 
-5.44871151447296e-01 2.47610196471214e-01 8.34468364715576e+00 717 
1.83552563190460e-01 -9.07132923603058e-02 8.40320587158203e+00 718 
1.52727901935577e+00 -2.01123189181089e-02 8.30007743835449e+00 719 
-7.63825774192810e-01 -8.28337669372559e-01 8.36312103271484e+00 720 
9.85925614833832e-01 -1.33033215999603e+00 8.28921890258789e+00 721 
1.73575472831726e+00 -1.30286407470703e+00 8.39259433746338e+00 722 
1.20096772909164e-01 -1.61802029609680e+00 8.35048580169678e+00 723 
-1.39381873607635e+00 -1.86795806884766e+00 8.35905551910400e+00 724 
-4.05911594629288e-01 -2.29485797882080e+00 8.32317352294922e+00 725 
-1.12837016582489e+00 -2.53183889389038e+00 8.41132926940918e+00 726 
1.56832098960876e+00 3.08978378772736e-01 8.32195663452148e+00 727 
-9.64217662811279e-01 3.14612947404385e-02 8.31973552703857e+00 728 
6.98212161660194e-02 -1.25105440616608e+00 8.40510845184326e+00 730 
-1.57955360412598e+00 -1.43300366401672e+00 8.34195327758789e+00 731 
7.08781480789185e-02 -1.30738770961761e+00 8.40989494323730e+00 732 
-1.31884908676147e+00 -1.42821705341339e+00 8.35174083709717e+00 733 
-8.41618835926056e-01 -1.58869612216949e+00 8.39965438842773e+00 734 
-1.65478467941284e+00 -1.76689958572388e+00 8.29587268829346e+00 735 
1.66531658172607e+00 -1.89857935905457e+00 8.29534626007080e+00 740 
6.68974220752716e-01 7.46251165866852e-01 8.38827419281006e+00 742 
1.06003677845001e+00 7.19744801521301e-01 8.40045547485352e+00 743 
-1.02864563465118e+00 -1.71071253716946e-02 8.39662647247314e+00 744 
-1.41917729377747e+00 -1.58669993281364e-01 8.38075065612793e+00 745 
-1.28530144691467e+00 -9.90547955036163e-01 8.40576744079590e+00 746 
-1.46133589744568e+00 -1.05240058898926e+00 8.30432891845703e+00 747 
1.28389418125153e+00 -1.96767961978912e+00 8.29476261138916e+00 748 
-1.69833230972290e+00 -2.25391340255737e+00 8.36629009246826e+00 749 
-1.15823015570641e-01 1.05159081518650e-01 8.40289115905762e+00 751 
-1.28326618671417e+00 -5.40280044078827e-01 8.33829498291016e+00 752 
1.43144774436951e+00 -4.07641589641571e-01 8.31903839111328e+00 753 
-1.37274169921875e+00 -6.26729965209961e-01 8.41081142425537e+00 754 
-7.03042820096016e-02 -5.91501772403717e-01 8.31913948059082e+00 755 
4.38393801450729e-01 -6.40343546867371e-01 8.32275581359863e+00 756 
-1.50427770614624e+00 -9.31257069110870e-01 8.27694320678711e+00 757 
-3.86810719966888e-01 -1.16201043128967e+00 8.35379981994629e+00 758 
-3.98802280426025e-01 -1.18068003654480e+00 8.37026214599609e+00 759 
2.68288373947144e-01 -1.24430549144745e+00 8.40561866760254e+00 760 
5.03915488719940e-01 -1.61478948593140e+00 8.36318016052246e+00 762 
-8.84635925292969e-01 -1.73166382312775e+00 8.41390895843506e+00 763 
-4.91393238306046e-01 -1.87821531295776e+00 8.32841587066650e+00 764 
-8.34189713001251e-01 5.64204573631287e-01 8.40506172180176e+00 765 
6.81627273559570e-01 5.63428997993469e-01 8.40682697296143e+00 766 
-1.76535868644714e+00 3.07486236095428e-01 8.40925693511963e+00 767 
1.34207582473755e+00 1.61574169993401e-01 8.39588737487793e+00 768 
8.58281791210175e-01 -4.85577210783958e-02 8.34885692596436e+00 769 
1.59248077869415e+00 -2.35094621777534e-01 8.30048084259033e+00 770 
7.07793951034546e-01 -4.87906664609909e-01 8.40246582031250e+00 772 
-1.01513779163361e+00 -1.01141345500946e+00 8.34167861938477e+00 773 
7.14557468891144e-01 -1.62654244899750e+00 8.32914447784424e+00 774 
8.78444671630859e-01 -1.73794007301331e+00 8.40073966979980e+00 775 
-1.17023718357086e+00 -1.93878448009491e+00 8.39484310150146e+00 776 
1.77184030413628e-01 -1.97235691547394e+00 8.33630084991455e+00 777 
1.39331996440887e-01 6.69357895851135e-01 8.31772136688232e+00 778 
1.04839336872101e+00 4.45938467979431e-01 8.31451892852783e+00 779 
5.40583848953247e-01 3.18291127681732e-01 8.31892395019531e+00 780 
4.34571474790573e-01 2.78520166873932e-01 8.40589427947998e+00 781 
2.79027342796326e-01 8.10030922293663e-02 8.38015270233154e+00 784 
-1.24259877204895e+00 -4.05637435615063e-02 8.40581035614014e+00 785 
-1.75103330612183e+00 -9.81436610221863e-01 8.36489295959473e+00 786 
-1.64301827549934e-01 -1.28380835056305e+00 8.32260513305664e+00 787 
-1.67876684665680e+00 -1.41603529453278e+00 8.32562732696533e+00 788 
1.90299954265356e-02 -1.64910411834717e+00 8.39515113830566e+00 789 
-1.25459837913513e+00 -1.83668482303619e+00 8.40903949737549e+00 790 
-1.78059077262878e+00 -3.38146179914474e-01 8.40725708007812e+00 791 
-1.71511745452881e+00 -7.31058418750763e-01 8.40952110290527e+00 792 
-1.77356815338135e+00 -3.83613765239716e-01 8.40775966644287e+00 793 
-7.39602684974670e-01 -8.02382946014404e-01 8.40571403503418e+00 794 
1.17086470127106e+00 -2.33220028877258e+00 8.30415725708008e+00 795 
-1.00107085704803e+00 -2.53713798522949e+00 8.41524791717529e+00 796 
-1.77197718620300e+00 -7.50672519207001e-01 8.40682888031006e+00 797 
-1.74887096881866e+00 -2.52994030714035e-01 8.41028785705566e+00 798 
-1.77835261821747e+00 -3.48149955272675e-01 8.40954780578613e+00 799 
-1.62050890922546e+00 -5.19627213478088e-01 8.40891265869141e+00 800 
-9.25972402095795e-01 -2.56771922111511e+00 8.33365345001221e+00 801 
-1.55826032161713e+00 -2.44166469573975e+00 8.42240524291992e+00 802 
-1.29743087291718e+00 -2.19603943824768e+00 8.35634422302246e+00 803 
1.55690953135490e-01 -2.48663377761841e+00 8.38091754913330e+00 804 
-1.04180562496185e+00 2.85293191671371e-01 8.29113006591797e+00 805 
1.24698901176453e+00 4.59288209676743e-01 8.39342689514160e+00 806 
-1.51623380184174e+00 -1.12934291362762e+00 8.29859733581543e+00 807 
9.51242446899414e-01 -1.01654660701752e+00 8.39638614654541e+00 808 
9.07738685607910e-01 -2.50671553611755e+00 8.40211296081543e+00 809 
1.15239584445953e+00 6.21866703033447e-01 8.40027618408203e+00 810 
-1.34955668449402e+00 5.14688849449158e-01 8.41161537170410e+00 811 
-1.68215692043304e+00 -2.24497652053833e+00 8.41382789611816e+00 812 
1.33434033393860e+00 3.65546107292175e-01 8.33726024627686e+00 813 
-2.52654314041138e-01 -3.56161147356033e-01 8.33520412445068e+00 814 
1.25879943370819e+00 -9.61648762226105e-01 8.39861965179443e+00 815 
-1.14499366283417e+00 -2.03411245346069e+00 8.36547470092773e+00 816 
1.46462035179138e+00 -1.89440751075745e+00 8.29607105255127e+00 817 
1.19453823566437e+00 -2.36367225646973e+00 8.30362129211426e+00 818 
2.24301755428314e-01 -2.14880228042603e+00 8.41495037078857e+00 819 
-1.86254119873047e+00 -6.54811412096024e-02 8.41262817382812e+00 821 
6.10710859298706e-01 -1.56842660903931e+00 8.32040977478027e+00 822 
-1.91755163669586e+00 4.94612812995911e-01 8.40556812286377e+00 823 
8.25554430484772e-02 9.41719412803650e-02 8.40800857543945e+00 824 
-1.72345924377441e+00 5.16028404235840e-01 8.40700817108154e+00 825 
-1.12444448471069e+00 5.30299067497253e-01 8.36240768432617e+00 826 
-1.13839232921600e+00 -9.97598052024841e-01 8.36684703826904e+00 827 
-1.47363460063934e+00 9.58467572927475e-02 8.38012695312500e+00 828 
4.10864114761353e-01 6.60063207149506e-01 8.32215309143066e+00 829 
-1.04599046707153e+00 -1.60802757740021e+00 8.40792942047119e+00 830 
-1.39737415313721e+00 1.29924952983856e-01 8.31543827056885e+00 831 
-1.87236726284027e+00 -1.70281589031219e-01 8.41290760040283e+00 832 
1.00185714662075e-01 3.80766153335571e-01 8.33409309387207e+00 834 
-1.45543158054352e+00 -1.05704033374786e+00 8.30198574066162e+00 835 
5.86181998252869e-01 -1.45792937278748e+00 8.40763950347900e+00 836 
1.02167025208473e-01 -2.56670260429382e+00 8.37274456024170e+00 837 
-9.61844205856323e-01 -2.18477678298950e+00 8.40925693511963e+00 838 
-4.44639235734940e-01 -2.51847982406616e-01 8.39193153381348e+00 839 
5.79999625682831e-01 -1.04782319068909e+00 8.39719295501709e+00 840 
-9.64274942874908e-01 2.99918800592422e-02 8.32120704650879e+00 841 
-5.23334965109825e-02 -3.07956725358963e-01 8.33905696868896e+00 842 
-7.16549754142761e-01 -1.93685993552208e-01 8.40257358551025e+00 843 
-5.82441329956055e-01 -2.39976978302002e+00 8.33860969543457e+00 844 
-1.86910521984100e+00 -6.69465810060501e-02 8.41415023803711e+00 845 
5.40726959705353e-01 -2.41234615445137e-01 8.30526638031006e+00 846 
6.58813357353210e-01 -1.66227114200592e+00 8.31891059875488e+00 847 
-9.20909270644188e-02 -1.97158849239349e+00 8.40678596496582e+00 848 
4.87013310194016e-01 -1.75961172580719e+00 8.33779811859131e+00 849 
-1.20462167263031e+00 4.09916520118713e-01 8.40694999694824e+00 850 
7.13194847106934e-01 1.29669040441513e-01 8.32509803771973e+00 851 
5.24076521396637e-01 -2.66584545373917e-01 8.30161094665527e+00 852 
3.76956701278687e-01 -1.17561948299408e+00 8.31856346130371e+00 853 
-8.48824977874756e-01 4.51795428991318e-01 8.40632152557373e+00 855 
-3.50649923086166e-01 1.29686608910561e-01 8.39414596557617e+00 856 
-1.66484773159027e-01 -8.21207046508789e-01 8.36698532104492e+00 857 
2.46499285101891e-01 -1.79679882526398e+00 8.36020469665527e+00 858 
-1.60191369056702e+00 -2.51423573493958e+00 8.41062927246094e+00 859 
-1.35466623306274e+00 -1.12163173034787e-02 8.30862903594971e+00 860 
-1.24431562423706e+00 -5.27353644371033e-01 8.33781051635742e+00 861 
-1.71341431140900e+00 -7.11426436901093e-01 8.41365337371826e+00 862 
-1.12610626220703e+00 -8.47066104412079e-01 8.33288002014160e+00 863 
-1.21716904640198e+00 -9.40814197063446e-01 8.41326236724854e+00 864 
-1.25981616973877e+00 -1.88359463214874e+00 8.33321475982666e+00 865 
-1.41425585746765e+00 5.58640718460083e-01 8.39316368103027e+00 866 
-1.65510749816895e+00 -1.21723368763924e-01 8.40842247009277e+00 867 
-1.46083807945251e+00 -6.53580546379089e-01 8.37990856170654e+00 868 
2.80427247285843e-01 -6.58394932746887e-01 8.37520027160645e+00 869 
2.53213465213776e-01 6.23903870582581e-01 8.40654850006104e+00 870 
-9.12629008293152e-01 4.39958833158016e-02 8.31856155395508e+00 871 
-2.14888006448746e-01 -6.33952438831329e-01 8.33852386474609e+00 872 
-4.57795768976212e-01 -6.75504803657532e-01 8.40278244018555e+00 873 
1.54257401823997e-01 -1.83058512210846e+00 8.37063884735107e+00 875 
-1.21381394565105e-01 -1.97459447383881e+00 8.40576744079590e+00 876 
-4.88030999898911e-01 -2.29422831535339e+00 8.35386371612549e+00 877 
-1.36436951160431e+00 -2.48778271675110e+00 8.41809940338135e+00 878 
-1.44809436798096e+00 -1.72609889507294e+00 8.29668331146240e+00 879 
-8.60615909099579e-01 5.09487628936768e-01 8.40556907653809e+00 880 
-1.01723504066467e+00 -1.35308134555817e+00 8.41543960571289e+00 881 
-9.38872933387756e-01 -8.97999882698059e-01 8.40571022033691e+00 882 
-1.35784876346588e+00 8.96237269043922e-02 8.31660461425781e+00 885 
-1.00023722648621e+00 -4.45193290710449e-01 8.35149669647217e+00 886 
-1.12944257259369e+00 -1.17180800437927e+00 8.34618282318115e+00 888 
-6.20387256145477e-01 -2.41842913627625e+00 8.33981323242188e+00 889 
-1.50378644466400e+00 -2.01720237731934e-01 8.38151264190674e+00 890 
-8.91340732574463e-01 -1.67248353362083e-01 8.33297729492188e+00 891 
-1.53968632221222e+00 -1.15993380546570e+00 8.29228782653809e+00 892 
-1.75357604026794e+00 -1.56603705883026e+00 8.32884216308594e+00 893 
-1.27740132808685e+00 -1.87574458122253e+00 8.33392620086670e+00 894 
4.37566816806793e-01 5.37940919399261e-01 8.33277511596680e+00 895 
-1.16360318660736e+00 -3.28349500894547e-01 8.38134670257568e+00 896 
5.82224786281586e-01 6.08396470546722e-01 8.33386611938477e+00 897 
-7.14244425296783e-01 3.41428071260452e-01 8.38982772827148e+00 898 
-1.64850458502769e-01 2.60415434837341e-01 8.40261077880859e+00 899 
-9.57155346870422e-01 2.81929466873407e-02 8.31844234466553e+00 900 
-1.47683000564575e+00 -1.00803220272064e+00 8.29004478454590e+00 901 
-6.51662290096283e-01 -1.03750860691071e+00 8.40738582611084e+00 902 
-1.39438712596893e+00 -1.50461292266846e+00 8.35485744476318e+00 904 
-1.39365339279175e+00 -1.62594223022461e+00 8.35466194152832e+00 905 
4.35459345579147e-01 -1.74390816688538e+00 8.34730434417725e+00 907 
-1.28429985046387e+00 4.83363240957260e-01 8.41253280639648e+00 909 
-7.31943964958191e-01 -1.35553467273712e+00 8.31964111328125e+00 910 
5.71378588676453e-01 -2.62513899803162e+00 8.39724922180176e+00 911 
-9.14006888866425e-01 -4.01191592216492e-01 8.34559917449951e+00 912 
-1.45757710933685e+00 -1.34953284263611e+00 8.34647178649902e+00 913 
-1.01044744253159e-01 -1.96364033222198e+00 8.40599727630615e+00 914 
3.29794883728027e-01 -3.43411594629288e-01 8.30491065979004e+00 915 
4.58666324615479e-01 -3.80074381828308e-01 8.40037250518799e+00 916 
-7.54230916500092e-01 -1.35181796550751e+00 8.33052635192871e+00 917 
-4.44825232028961e-01 -2.28307676315308e+00 8.35172557830811e+00 918 
6.05131864547729e-01 -2.64348697662354e+00 8.40362262725830e+00 919 
-1.58916938304901e+00 4.56310585141182e-02 8.37439632415771e+00 920 
-1.02155518531799e+00 -3.74390669167042e-02 8.39188098907471e+00 921 
5.38474798202515e-01 -2.51442849636078e-01 8.30359363555908e+00 922 
5.80455541610718e-01 -1.43916010856628e+00 8.40400409698486e+00 923 
6.32149398326874e-01 -1.45435285568237e+00 8.40583705902100e+00 924 
-1.30210292339325e+00 -2.19643688201904e+00 8.35717391967773e+00 925 
-1.56790983676910e+00 -3.15107107162476e-01 8.29224586486816e+00 928 
-1.29796886444092e+00 5.61965644359589e-01 8.41481018066406e+00 929 
-7.13119745254517e-01 -6.19997322559357e-01 8.40020656585693e+00 930 
-1.57006466388702e+00 -2.15242576599121e+00 8.41304302215576e+00 931 
-1.03366994857788e+00 3.06852012872696e-01 8.28911495208740e+00 932 
-1.64584517478943e+00 -1.31919956207275e+00 8.34136390686035e+00 933 
-1.64602649211884e+00 -1.76905632019043e+00 8.29538822174072e+00 934 
5.87635636329651e-01 -1.05025088787079e+00 8.39855098724365e+00 935 
4.62662547826767e-01 5.60955882072449e-01 8.32548236846924e+00 936 
-1.10847628116608e+00 -5.90262353420258e-01 8.41225051879883e+00 937 
-1.07447469234467e+00 -1.34522080421448e+00 8.35963058471680e+00 938 
-5.50617277622223e-01 -1.44414949417114e+00 8.35418128967285e+00 939 
-1.03162586688995e+00 -1.52826917171478e+00 8.41239929199219e+00 940 
1.55304193496704e-01 -2.80885219573975e-01 8.40416431427002e+00 941 
5.84139227867126e-01 -9.73653376102448e-01 8.29686450958252e+00 942 
-1.04358565807343e+00 -2.02330708503723e+00 8.33075046539307e+00 944 
-1.09696662425995e+00 -2.04224777221680e+00 8.33090782165527e+00 945 
-2.00716853141785e-01 -2.42314362525940e+00 8.40998744964600e+00 946 
-1.63073754310608e+00 4.31767284870148e-01 8.31766414642334e+00 949 
-9.17694926261902e-01 -4.36318039894104e-01 8.34148979187012e+00 950 
-1.50502991676331e+00 -6.27474665641785e-01 8.37254428863525e+00 951 
-3.35884213447571e-01 -7.10076272487640e-01 8.40192222595215e+00 952 
-1.43049263954163e+00 -1.03545451164246e+00 8.29861640930176e+00 953 
-6.13429009914398e-01 -1.45362651348114e+00 8.35462760925293e+00 954 
-2.82165557146072e-01 -1.93102419376373e+00 8.40962886810303e+00 955 
-9.93299126625061e-01 -7.49814882874489e-02 8.40715503692627e+00 956 
1.38270449638367e+00 -3.44568490982056e-01 8.31052398681641e+00 959 
1.49183130264282e+00 -3.02752912044525e-01 8.40704822540283e+00 961 
1.24945454299450e-02 -6.67429864406586e-01 8.28935241699219e+00 962 
1.00559186935425e+00 4.08232659101486e-01 8.31280136108398e+00 966 
1.52792453765869e+00 6.28496944904327e-01 8.39748287200928e+00 967 
-1.89452791213989e+00 2.57435142993927e-01 8.41433620452881e+00 971 
-5.76732993125916e-01 -5.87109446525574e-01 8.40605163574219e+00 975 
-1.57044982910156e+00 -2.97477900981903e-01 8.29276657104492e+00 976 
-1.22221022844315e-01 -6.18205726146698e-01 8.37198257446289e+00 977 
1.35767447948456e+00 1.06553122401237e-01 8.40033817291260e+00 981 
-1.82097935676575e+00 3.03451627492905e-01 8.41081905364990e+00 983 
1.27903628349304e+00 9.74465627223253e-03 8.40261554718018e+00 987 
2.82883699983358e-02 -5.07479071617126e-01 8.35834789276123e+00 988 
6.42133057117462e-01 6.79173886775970e-01 8.38913059234619e+00 989 
9.49059128761292e-01 8.28648447990417e-01 8.34556961059570e+00 990 
1.76073968410492e-01 1.54333138465881e+00 8.39974498748779e+00 991 
9.89488288760185e-02 2.08358645439148e+00 8.40034866333008e+00 992 
7.98544108867645e-01 1.00876557826996e+00 8.25645446777344e+00 993 
2.79341995716095e-01 6.04508697986603e-01 8.39834117889404e+00 994 
1.62527179718018e+00 1.09121608734131e+00 8.36733627319336e+00 995 
-8.08820009231567e-01 1.10231065750122e+00 8.29123020172119e+00 996 
2.80921608209610e-01 1.54825770854950e+00 8.36230659484863e+00 997 
8.54817211627960e-01 1.73570537567139e+00 8.39622497558594e+00 998 
-3.65692377090454e-02 2.30785012245178e+00 8.35655021667480e+00 999 
2.13949456810951e-01 -4.58846330642700e-01 8.39899063110352e+00 1000 
-5.69347023963928e-01 -1.91374823451042e-01 8.35410308837891e+00 1001 
1.18857896327972e+00 -3.24379593133926e-01 8.31041336059570e+00 1002 
1.22915112972260e+00 2.16075205802917e+00 8.39587211608887e+00 1003 
7.72378295660019e-02 1.83359134197235e+00 8.35193634033203e+00 1004 
7.13515281677246e-01 2.55484414100647e+00 8.39131164550781e+00 1005 
-1.61506250500679e-01 1.88307714462280e+00 8.41105079650879e+00 1006 
1.36640286445618e+00 -1.11454415321350e+00 8.39408683776855e+00 1007 
-7.45477899909019e-03 2.08719044923782e-01 8.40269470214844e+00 1008 
1.78632450103760e+00 6.00362479686737e-01 8.39064598083496e+00 1009 
4.15282130241394e-01 6.49554252624512e-01 8.32193088531494e+00 1010 
-5.47541677951813e-01 -2.00991034507751e-01 8.35760021209717e+00 1011 
-4.18917536735535e-01 8.68791282176971e-01 8.39431190490723e+00 1012 
6.62949085235596e-01 1.31136631965637e+00 8.36201095581055e+00 1013 
1.78413414955139e+00 -1.21958291530609e+00 8.39237785339355e+00 1015 
6.13926053047180e-01 1.95053204894066e-01 8.32459545135498e+00 1016 
6.20351910591125e-01 2.01468989253044e-01 8.31985950469971e+00 1017 
3.39887827634811e-01 8.46275568008423e-01 8.39783191680908e+00 1018 
-3.12864094972610e-01 2.18842053413391e+00 8.30792999267578e+00 1019 
1.21766722202301e+00 -4.00392532348633e-01 8.31215858459473e+00 1021 
2.29107923805714e-02 -4.27348017692566e-01 8.35833168029785e+00 1022 
5.88071882724762e-01 3.63033592700958e-01 8.30401802062988e+00 1023 
1.77095675468445e+00 5.03774523735046e-01 8.32097148895264e+00 1024 
5.32341778278351e-01 7.10853934288025e-01 8.40615940093994e+00 1025 
3.58226507902145e-01 1.68720507621765e+00 8.41014862060547e+00 1026 
-2.53030151128769e-01 1.76148688793182e+00 8.39093017578125e+00 1027 
9.21044111251831e-01 -9.26522240042686e-02 8.40708065032959e+00 1028 
1.08673512935638e+00 9.98320758342743e-01 8.39282894134521e+00 1029 
6.88076913356781e-01 1.02267110347748e+00 8.26886558532715e+00 1030 
9.52879846096039e-01 -1.67082771658897e-01 8.40814495086670e+00 1031 
1.40398538112640e+00 1.47647035121918e+00 8.38756179809570e+00 1032 
4.27063584327698e-01 2.35853886604309e+00 8.39266109466553e+00 1033 
-4.62587207555771e-01 -8.57646584510803e-01 8.35867214202881e+00 1035 
1.72926461696625e+00 5.91363757848740e-03 8.29922962188721e+00 1036 
-6.28745973110199e-01 1.46980571746826e+00 8.39612102508545e+00 1037 
1.49873280525208e+00 -1.28797125816345e+00 8.38199329376221e+00 1038 
8.61422955989838e-01 -2.42238268256187e-01 8.40588378906250e+00 1039 
5.32055139541626e-01 1.03526830673218e+00 8.41122913360596e+00 1040 
4.53110374510288e-02 2.16359639167786e+00 8.28917694091797e+00 1041 
4.71854433417320e-02 2.16354703903198e+00 8.28906059265137e+00 1042 
1.21204793453217e+00 -1.12707328796387e+00 8.39892005920410e+00 1043 
1.71848201751709e+00 -6.39245986938477e-01 8.30205059051514e+00 1044 
-2.41355388425291e-03 -2.03310084342957e+00 8.41185188293457e+00 1045 
2.27470338344574e-01 1.57279121875763e+00 8.40655231475830e+00 1046 
8.95543098449707e-01 2.43657302856445e+00 8.39575767517090e+00 1047 
-3.44923317432404e-01 1.31808578968048e-01 8.30342864990234e+00 1048 
-2.30555132031441e-01 6.11202359199524e-01 8.39719009399414e+00 1049 
-4.96532022953033e-01 1.17536926269531e+00 8.40084457397461e+00 1050 
1.11801600456238e+00 2.21593332290649e+00 8.39175415039062e+00 1051 
2.86265373229980e-01 1.51220798492432e+00 8.34166908264160e+00 1053 
-7.59354770183563e-01 1.78366327285767e+00 8.40101814270020e+00 1054 
1.70595514774323e+00 7.42819786071777e-01 8.39359760284424e+00 1056 
1.45593121647835e-01 2.39433526992798e+00 8.39546680450439e+00 1057 
-5.42162537574768e-01 8.01610171794891e-01 8.32835388183594e+00 1058 
1.19601309299469e+00 2.39497041702271e+00 8.39514255523682e+00 1059 
1.00835800170898e+00 2.50891065597534e+00 8.39548778533936e+00 1060 
-1.79093539714813e-01 -7.56420791149139e-01 8.36694240570068e+00 1062 
7.27738738059998e-01 8.63457322120667e-01 8.39831638336182e+00 1063 
-6.27548694610596e-02 1.43508577346802e+00 8.32824039459229e+00 1064 
1.21768021583557e+00 -1.13154327869415e+00 8.39768981933594e+00 1065 
2.07161381840706e-01 -6.16301894187927e-01 8.37923812866211e+00 1066 
1.43141198158264e+00 1.95650410652161e+00 8.38831233978271e+00 1068 
1.65543472766876e+00 -6.37145265936852e-02 8.39451980590820e+00 1070 
6.30846083164215e-01 1.94872602820396e-01 8.31617736816406e+00 1071 
1.64607322216034e+00 2.08899092674255e+00 8.32545852661133e+00 1072 
-7.80335307121277e-01 2.40478157997131e+00 8.28104496002197e+00 1073 
3.60919594764709e-01 -2.54148435592651e+00 8.32141971588135e+00 1074 
-4.62566405534744e-01 8.09827148914337e-01 8.33887958526611e+00 1075 
1.30522835254669e+00 8.66238355636597e-01 8.29415702819824e+00 1076 
-5.55342994630337e-02 1.13070178031921e+00 8.31796073913574e+00 1077 
8.31341922283173e-01 1.37198710441589e+00 8.39980888366699e+00 1078 
1.00388228893280e+00 1.69103360176086e+00 8.32645797729492e+00 1079 
1.01356625556946e+00 1.83592844009399e+00 8.39389133453369e+00 1080 
-6.90931975841522e-01 2.03328919410706e+00 8.40110111236572e+00 1081 
1.52346265316010e+00 2.18425583839417e+00 8.38784790039062e+00 1082 
-6.79992198944092e-01 2.17017102241516e+00 8.29103660583496e+00 1083 
1.14464414119720e+00 1.41830646991730e+00 8.29256153106689e+00 1084 
-6.85027182102203e-01 1.56851470470428e+00 8.40232372283936e+00 1085 
1.51904451847076e+00 1.96772634983063e+00 8.39304733276367e+00 1086 
1.28470301628113e+00 1.01942813396454e+00 8.29150867462158e+00 1087 
-6.76298618316650e-01 1.55152010917664e+00 8.39988136291504e+00 1089 
-2.74079680442810e-01 2.11493134498596e+00 8.29997253417969e+00 1090 
-5.38327097892761e-01 -1.92694783210754e-01 8.35816860198975e+00 1091 
1.55037418007851e-01 9.05791521072388e-01 8.39939785003662e+00 1092 
1.03435111045837e+00 1.78795933723450e+00 8.39376640319824e+00 1093 
-8.28716814517975e-01 1.77036619186401e+00 8.40119361877441e+00 1094 
-8.05879473686218e-01 1.87664091587067e+00 8.37329006195068e+00 1095 
-7.65251398086548e-01 2.60647773742676e+00 8.39590740203857e+00 1096 
-2.34029754996300e-01 1.28548121452332e+00 8.39964103698730e+00 1097 
9.85682606697083e-01 1.48087573051453e+00 8.39294719696045e+00 1098 
-2.36312553286552e-01 2.33564519882202e+00 8.40523433685303e+00 1099 
-2.27480366826057e-01 2.34250569343567e+00 8.40524673461914e+00 1100 
-7.60248780250549e-01 -1.63934022188187e-01 8.40505218505859e+00 1101 
-2.27201938629150e-01 1.27875185012817e+00 8.39583683013916e+00 1102 
1.61260616779327e+00 8.49150180816650e-01 8.29452800750732e+00 1103 
-4.35948520898819e-01 1.34270834922791e+00 8.40614891052246e+00 1104 
1.54895472526550e+00 1.58896398544312e+00 8.38432788848877e+00 1105 
1.21493196487427e+00 1.25675296783447e+00 8.29677009582520e+00 1106 
1.95177942514420e-01 1.91228806972504e+00 8.40817832946777e+00 1107 
1.22544729709625e+00 1.22874701023102e+00 8.29215335845947e+00 1108 
4.48993086814880e-01 -2.52722501754761e+00 8.40518951416016e+00 1109 
-7.50058516860008e-02 -1.62444853782654e+00 8.32659530639648e+00 1111 
1.68333125114441e+00 1.04679882526398e-01 8.39173793792725e+00 1112 
6.96684002876282e-01 1.17866671085358e+00 8.36280155181885e+00 1113 
-2.77213007211685e-01 1.40934610366821e+00 8.36679077148438e+00 1114 
4.07448530197144e-01 1.68620777130127e+00 8.33026981353760e+00 1115 
5.44130742549896e-01 1.71818804740906e+00 8.41582965850830e+00 1116 
2.71657332777977e-02 1.82488548755646e+00 8.41123008728027e+00 1117 
-4.77809667587280e-01 2.05898308753967e+00 8.39576435089111e+00 1118 
1.30232572555542e+00 2.14050769805908e+00 8.29123115539551e+00 1119 
1.55335962772369e+00 2.36087536811829e+00 8.28183650970459e+00 1121 
1.43729507923126e+00 2.48413157463074e+00 8.28665256500244e+00 1122 
1.65977227687836e+00 2.56189131736755e+00 8.38103580474854e+00 1123 
9.79205787181854e-01 2.60524439811707e+00 8.33560466766357e+00 1124 
-3.73054265975952e-01 -1.37230932712555e+00 8.34005451202393e+00 1125 
-8.06325495243073e-01 -6.83681294322014e-02 8.40486240386963e+00 1126 
1.03021955490112e+00 3.99645954370499e-01 8.31525516510010e+00 1127 
5.77029883861542e-01 6.10372304916382e-01 8.33446598052979e+00 1128 
1.38256537914276e+00 8.09922039508820e-01 8.30796337127686e+00 1129 
1.30860316753387e+00 8.69682788848877e-01 8.29369831085205e+00 1130 
-1.84564083814621e-01 9.77601706981659e-01 8.30149173736572e+00 1131 
1.07534050941467e+00 1.39057731628418e+00 8.38498687744141e+00 1132 
-2.30933483690023e-02 1.47467827796936e+00 8.39311504364014e+00 1133 
1.26850342750549e+00 1.67344737052917e+00 8.31871509552002e+00 1134 
