ply
format ascii 1.0
element vertex 688
property double x
property double y
property double z
property short id
end_header
-3.93865197896957e-01 -1.01894140243530e+00 8.05452156066895e+00 574 
-1.26307618618011e+00 -1.34168648719788e+00 8.05443668365479e+00 575 
1.49443006515503e+00 -1.30236053466797e+00 8.08870315551758e+00 576 
-8.31338524818420e-01 -1.56773030757904e+00 8.09660053253174e+00 578 
1.58883368968964e+00 -2.21885824203491e+00 8.08598232269287e+00 579 
-9.87413227558136e-01 -2.46138763427734e+00 8.10675334930420e+00 580 
1.61526596546173e+00 -2.30427217483521e+00 8.08846855163574e+00 581 
1.19248747825623e+00 -2.41497373580933e+00 7.99045276641846e+00 582 
-2.84447744488716e-02 -4.81490015983582e-01 8.02368640899658e+00 583 
9.28617894649506e-01 5.79391062259674e-01 8.01643848419189e+00 584 
-1.00141370296478e+00 2.78594434261322e-01 7.99459981918335e+00 585 
1.13815829157829e-01 2.94218003749847e-01 8.00731658935547e+00 586 
-1.62695002555847e+00 -4.52140122652054e-01 8.10393524169922e+00 588 
-1.64619183540344e+00 -7.15771555900574e-01 8.10385322570801e+00 589 
-8.47496688365936e-01 -7.54770159721375e-01 8.10205078125000e+00 590 
-1.12676274776459e+00 -7.88451075553894e-01 8.10494136810303e+00 591 
-1.23397219181061e+00 -9.85754609107971e-01 8.10335445404053e+00 592 
-2.87796139717102e-01 -1.23985433578491e+00 8.09847831726074e+00 593 
-1.45824539661407e+00 -7.51489043235779e-01 8.04722881317139e+00 596 
1.64295673370361e+00 -6.41150712966919e-01 7.99869585037231e+00 597 
1.57806420326233e+00 -1.49389731884003e+00 8.08918762207031e+00 598 
-9.33424115180969e-01 -2.19044232368469e+00 8.11392211914062e+00 599 
-9.10622239112854e-01 -2.19995093345642e+00 8.11131668090820e+00 600 
-1.59159529209137e+00 3.17887693643570e-01 8.02519607543945e+00 601 
-1.06534576416016e+00 2.94914633035660e-01 7.96467018127441e+00 602 
-1.28780865669250e+00 -9.39739271998405e-02 8.00979518890381e+00 603 
-1.70260441303253e+00 -3.95450413227081e-01 8.10377216339111e+00 605 
-1.05071187019348e+00 -4.85059827566147e-01 8.03427791595459e+00 606 
-8.20643067359924e-01 -5.38566946983337e-01 8.10383510589600e+00 607 
-9.26103234291077e-01 -8.88853907585144e-01 8.10272884368896e+00 609 
-1.09432637691498e+00 -1.00812792778015e+00 8.05954170227051e+00 610 
-3.75819116830826e-01 -1.19985628128052e+00 8.09938907623291e+00 611 
-1.53555214405060e+00 -1.41700732707977e+00 8.04029846191406e+00 612 
2.38104984164238e-01 -1.28733742237091e+00 8.09867668151855e+00 613 
1.92873015999794e-01 -1.31693208217621e+00 8.09847164154053e+00 614 
-7.06841945648193e-01 -1.53966677188873e+00 8.08901596069336e+00 615 
-8.08472752571106e-01 -1.57188963890076e+00 8.09647464752197e+00 616 
-1.26399087905884e+00 -2.23188972473145e+00 8.10638332366943e+00 617 
1.68701779842377e+00 -2.35396313667297e+00 8.08789062500000e+00 618 
8.98069441318512e-01 -2.46198582649231e+00 8.10012245178223e+00 619 
-1.67262244224548e+00 -6.33717179298401e-02 8.11193370819092e+00 620 
-1.16636261343956e-01 6.32504886016250e-03 8.10354804992676e+00 621 
8.40301573276520e-01 1.28683205693960e-02 8.10739326477051e+00 622 
-9.56162571907043e-01 -5.18290221691132e-01 8.08195590972900e+00 623 
-1.68866527080536e+00 -7.34147846698761e-01 8.10430431365967e+00 624 
-4.42571759223938e-01 -1.74427890777588e+00 8.03976249694824e+00 625 
-8.43474566936493e-01 -1.78846824169159e+00 8.06461429595947e+00 626 
-1.31573569774628e+00 -1.91365325450897e+00 8.03234577178955e+00 627 
6.13641321659088e-01 -2.14559388160706e+00 7.98709964752197e+00 628 
-1.59281706809998e+00 3.98864239454269e-01 8.02079391479492e+00 630 
1.43963074684143e+00 5.10582268238068e-01 8.01537036895752e+00 631 
-1.34359896183014e+00 2.45048776268959e-01 8.10967254638672e+00 632 
-8.97897183895111e-01 6.18331804871559e-02 8.00127029418945e+00 633 
-1.22901313006878e-01 1.25507995486259e-01 8.10690212249756e+00 634 
-1.31858074665070e+00 -4.49292967095971e-03 8.01100063323975e+00 635 
-1.19783270359039e+00 -6.17917701601982e-02 8.10368824005127e+00 636 
-1.40258967876434e+00 -2.33024358749390e-01 8.08035373687744e+00 637 
1.42264592647552e+00 -1.69956907629967e-01 8.09316253662109e+00 638 
-1.51663744449615e+00 -6.48329555988312e-01 8.10525989532471e+00 639 
-7.41362690925598e-01 -7.40617215633392e-01 8.10068607330322e+00 640 
-1.65560472011566e+00 -1.28062963485718e+00 8.09607601165771e+00 641 
-1.02715015411377e+00 -1.45663261413574e+00 8.11101150512695e+00 643 
-7.55977928638458e-01 -1.49906778335571e+00 8.08967971801758e+00 644 
-1.61503911018372e+00 -1.60441422462463e+00 8.06226634979248e+00 645 
6.29060506820679e-01 -1.59591937065125e+00 8.03378200531006e+00 646 
-1.13658893108368e+00 -1.85425877571106e+00 8.07431125640869e+00 647 
-1.59357321262360e+00 -2.00144171714783e+00 8.03131484985352e+00 648 
-1.41600322723389e+00 -1.99933040142059e+00 8.05496788024902e+00 649 
-1.17652475833893e+00 -2.00575494766235e+00 8.02733802795410e+00 650 
5.80432713031769e-01 -2.12840580940247e+00 7.97170448303223e+00 651 
-1.29071342945099e+00 -2.36058449745178e+00 8.10635852813721e+00 652 
-1.27883982658386e+00 3.67773443460464e-01 8.10555362701416e+00 653 
-1.27502107620239e+00 -2.17633694410324e-01 8.01078987121582e+00 654 
-1.69366228580475e+00 -6.79416477680206e-01 8.10447406768799e+00 655 
1.22719919681549e+00 -8.26216459274292e-01 8.09106254577637e+00 656 
1.89757525920868e-01 -1.42709708213806e+00 8.10338306427002e+00 657 
-1.50238049030304e+00 -2.36968302726746e+00 8.11568164825439e+00 658 
1.58852171897888e+00 -2.21360731124878e+00 8.08701705932617e+00 659 
1.25445508956909e+00 -2.44278430938721e+00 7.99362182617188e+00 660 
-1.84598684310913e-01 6.31010413169861e-01 8.10963058471680e+00 661 
4.32436078786850e-01 5.15116155147552e-01 8.02777767181396e+00 662 
-1.35316967964172e+00 1.27336651086807e-01 8.01880741119385e+00 664 
2.79578596353531e-01 2.68556296825409e-01 8.09799575805664e+00 665 
-6.23575925827026e-01 1.67580097913742e-01 8.04218578338623e+00 666 
-1.07148312032223e-01 2.13485643267632e-01 8.10294818878174e+00 667 
1.40523850917816e+00 -6.62842392921448e-02 8.09324073791504e+00 668 
4.30727332830429e-01 -3.84518176317215e-01 8.09868717193604e+00 669 
6.69137537479401e-01 -4.02725934982300e-01 8.09867000579834e+00 670 
-5.51169812679291e-01 -5.99848926067352e-01 8.10103893280029e+00 671 
-1.52131664752960e+00 -1.08117210865021e+00 7.99230289459229e+00 672 
-1.07985973358154e+00 -1.04972624778748e+00 8.06664943695068e+00 673 
7.01162159442902e-01 -1.17710244655609e+00 7.99807024002075e+00 674 
-8.48867475986481e-01 -1.54184162616730e+00 8.09585762023926e+00 675 
-1.38295829296112e+00 -1.66685354709625e+00 7.99711322784424e+00 677 
-6.40350043773651e-01 -1.84446585178375e+00 8.10664939880371e+00 678 
-1.25609159469604e+00 -1.93026554584503e+00 8.03812313079834e+00 679 
4.16081935167313e-01 -1.84406411647797e+00 8.10639953613281e+00 680 
-7.58900165557861e-01 -1.94545066356659e+00 8.08041763305664e+00 681 
-1.11643588542938e+00 -2.03541231155396e+00 8.05926513671875e+00 682 
-1.62235176563263e+00 -2.17305302619934e+00 8.10997867584229e+00 683 
1.12120795249939e+00 -1.98005676269531e+00 7.99198722839355e+00 684 
-7.29702174663544e-01 -2.29994654655457e+00 8.11119270324707e+00 686 
-1.51158118247986e+00 -2.49742436408997e+00 8.11020469665527e+00 687 
1.07969713211060e+00 -8.33010911941528e-01 8.09824562072754e+00 689 
-1.56396114826202e+00 -2.48690247535706e+00 8.02402210235596e+00 690 
-6.80905342102051e-01 5.20049691200256e-01 8.10762977600098e+00 691 
-1.30131840705872e+00 4.70901548862457e-01 8.11210918426514e+00 692 
-1.13879454135895e+00 2.68040388822556e-01 7.96558237075806e+00 693 
1.20088183879852e+00 4.27145212888718e-01 8.09205818176270e+00 694 
-1.29643130302429e+00 -4.74866896867752e-01 8.10764980316162e+00 695 
-1.22922194004059e+00 -1.07759702205658e+00 8.05647659301758e+00 696 
1.19720852375031e+00 -1.40151703357697e+00 8.09878730773926e+00 697 
1.56865477561951e+00 -2.47382807731628e+00 8.04275131225586e+00 698 
-9.53776478767395e-01 -7.78637826442719e-02 8.09946823120117e+00 699 
-1.13288676738739e+00 -5.49475252628326e-01 8.08115863800049e+00 700 
-5.53261041641235e-01 -6.00504577159882e-01 8.10047149658203e+00 701 
-1.25002396106720e+00 -1.04298937320709e+00 8.04614448547363e+00 702 
9.53139245510101e-01 -7.03557848930359e-01 8.08884239196777e+00 703 
1.01845800876617e+00 -1.13113498687744e+00 8.09951305389404e+00 704 
-1.19885325431824e+00 -3.81469726562500e-01 8.12429332733154e+00 705 
-1.70875394344330e+00 -7.39725053310394e-01 8.10381793975830e+00 706 
-1.16433656215668e+00 -1.10954010486603e+00 8.04438114166260e+00 707 
-1.16085803508759e+00 -1.71688365936279e+00 8.07967185974121e+00 708 
-1.25643551349640e+00 -1.72246098518372e+00 8.10708808898926e+00 709 
-8.39324951171875e-01 -2.11751604080200e+00 8.03664684295654e+00 710 
3.89356821775436e-01 5.79343557357788e-01 8.03371429443359e+00 711 
9.94882941246033e-01 4.09574151039124e-01 8.01274299621582e+00 712 
1.21561694145203e+00 3.90080064535141e-01 8.09628105163574e+00 713 
-9.13432538509369e-01 9.65739861130714e-02 8.01179122924805e+00 714 
9.04746115207672e-01 1.19022637605667e-01 8.10543823242188e+00 715 
-1.30767011642456e+00 -9.32815521955490e-02 8.01089859008789e+00 716 
-3.26185286045074e-01 -1.14924438297749e-01 8.10485553741455e+00 717 
-1.52027225494385e+00 -2.46898636221886e-01 7.99522399902344e+00 718 
-1.71499252319336e+00 -3.51823747158051e-01 8.10748291015625e+00 719 
1.12670314311981e+00 -3.49451720714569e-01 8.00483417510986e+00 720 
-1.55131325125694e-01 -4.51754331588745e-01 8.06794929504395e+00 721 
1.50034379959106e+00 -3.29338729381561e-01 8.09383392333984e+00 722 
-1.13063836097717e+00 -7.86703646183014e-01 8.10742187500000e+00 723 
1.03902363777161e+00 -7.57636129856110e-01 8.10268020629883e+00 724 
4.22086089849472e-01 -9.06971275806427e-01 8.09932518005371e+00 725 
-1.49950194358826e+00 -1.16395664215088e+00 8.02910518646240e+00 726 
-1.62885391712189e+00 -1.26545524597168e+00 8.10604763031006e+00 727 
6.98395073413849e-01 -1.17122137546539e+00 7.99775505065918e+00 728 
-1.12266147136688e+00 -1.33328747749329e+00 8.03150177001953e+00 730 
4.81380105018616e-01 -1.21561336517334e+00 8.09620761871338e+00 731 
-1.55449914932251e+00 -1.66055560112000e+00 8.10726833343506e+00 732 
-1.59107959270477e+00 -1.73097193241119e+00 7.99654245376587e+00 733 
6.24824881553650e-01 -1.62226283550262e+00 8.02646732330322e+00 734 
-9.06910479068756e-01 -1.88574528694153e+00 8.08983325958252e+00 735 
-1.21367923915386e-01 -2.07600212097168e+00 8.03253173828125e+00 736 
7.63272166252136e-01 -2.20275783538818e+00 8.09928703308105e+00 737 
-7.99957275390625e-01 -2.36369752883911e+00 8.02342605590820e+00 738 
-8.93128693103790e-01 -2.37086749076843e+00 8.02745532989502e+00 739 
8.74597847461700e-01 -2.43186974525452e+00 8.09538078308105e+00 740 
-9.39004778862000e-01 -2.98025995492935e-01 8.03131484985352e+00 741 
4.40728038549423e-01 -5.87656021118164e-01 8.00730991363525e+00 742 
-7.93748676776886e-01 -1.26106584072113e+00 8.12239837646484e+00 743 
-1.25657522678375e+00 -1.69187378883362e+00 8.10648536682129e+00 744 
-1.28375971317291e+00 -2.34339094161987e+00 8.10523128509521e+00 745 
-1.53672695159912e+00 4.01819616556168e-01 8.02179241180420e+00 746 
-8.63693475723267e-01 3.50560247898102e-01 8.11033630371094e+00 747 
-1.52150189876556e+00 5.06726093590260e-02 8.08366870880127e+00 748 
-8.68270754814148e-01 2.73750871419907e-02 8.02436733245850e+00 749 
-1.31365859508514e+00 -7.48948827385902e-02 8.00775718688965e+00 750 
-1.17972266674042e+00 -8.84438529610634e-02 8.10883235931396e+00 751 
-2.14389160275459e-01 -1.53808116912842e-01 8.10552501678467e+00 752 
-1.67014408111572e+00 -2.81958431005478e-01 8.10608100891113e+00 753 
-1.71029591560364e+00 -3.85918259620667e-01 8.10574340820312e+00 754 
8.40881586074829e-01 -2.73574650287628e-01 8.10226345062256e+00 755 
-9.52989757061005e-01 -7.57537633180618e-02 8.09864139556885e+00 756 
1.12641012668610e+00 -9.94674116373062e-02 8.10125350952148e+00 757 
1.05203318595886e+00 -1.79390156269073e+00 8.11342048645020e+00 758 
1.01371848583221e+00 -1.79614198207855e+00 8.11065196990967e+00 759 
-2.21013784408569e-01 5.67992269992828e-01 8.09360408782959e+00 760 
-1.24766469001770e+00 -4.58595991134644e-01 8.10924053192139e+00 761 
-1.51877570152283e+00 -2.35013818740845e+00 8.11687755584717e+00 762 
1.06287407875061e+00 -1.26203387975693e-01 8.10275745391846e+00 763 
1.18786108493805e+00 -1.69644486904144e+00 8.10722637176514e+00 764 
-1.25058460235596e+00 -6.04596793651581e-01 8.10847377777100e+00 765 
4.07477229833603e-01 -5.02242147922516e-01 8.01978302001953e+00 766 
-1.40045249462128e+00 -6.40482485294342e-01 8.11324405670166e+00 767 
-1.45020055770874e+00 -7.32641160488129e-01 8.04413414001465e+00 768 
-1.00731897354126e+00 -8.23012232780457e-01 8.04106330871582e+00 769 
-8.76128971576691e-01 -1.17385816574097e+00 8.08926963806152e+00 770 
-3.46638411283493e-01 -1.19260668754578e+00 8.10502910614014e+00 771 
-1.02018392086029e+00 -1.32003998756409e+00 8.07569599151611e+00 772 
1.09130114316940e-01 -1.44327890872955e+00 8.05742359161377e+00 773 
-1.46470749378204e+00 -1.67976093292236e+00 7.98497676849365e+00 774 
-1.07839263975620e-01 -1.63712918758392e+00 8.01138019561768e+00 775 
8.63680183887482e-01 -1.57213985919952e+00 8.09788227081299e+00 776 
-1.24515628814697e+00 -2.08885526657104e+00 8.02742576599121e+00 777 
-1.19991458952427e-01 -2.22068071365356e+00 8.10559368133545e+00 778 
1.60480105876923e+00 -2.20981955528259e+00 8.08778858184814e+00 779 
8.67456972599030e-01 -2.27579545974731e+00 8.03100395202637e+00 780 
6.86528742313385e-01 -2.29800868034363e+00 7.97444915771484e+00 781 
-1.06068778038025e+00 -2.49399852752686e+00 8.02300071716309e+00 782 
4.51487690210342e-01 -2.42458367347717e+00 8.10703945159912e+00 783 
-1.41679978370667e+00 5.12755274772644e-01 8.09204292297363e+00 784 
-1.67828834056854e+00 5.37362135946751e-02 8.10633468627930e+00 785 
-9.01038229465485e-01 -4.82715666294098e-01 8.07619953155518e+00 786 
-8.82832348346710e-01 -2.21386909484863e+00 8.10925483703613e+00 787 
-1.55335843563080e+00 3.91643822193146e-01 8.02221107482910e+00 788 
-1.57551193237305e+00 3.86410325765610e-01 8.01322269439697e+00 789 
-1.00525498390198e+00 2.59209841489792e-01 7.99432849884033e+00 790 
-9.48827266693115e-01 5.49081480130553e-03 8.01934051513672e+00 792 
-1.42792809009552e+00 -1.75109170377254e-02 8.07995605468750e+00 793 
9.88003075122833e-01 -7.74591341614723e-02 8.10543727874756e+00 794 
1.66010394692421e-01 -2.06307321786880e-01 8.10719108581543e+00 795 
-1.66171729564667e+00 -4.91359263658524e-01 8.10766601562500e+00 796 
3.59428077936172e-01 -4.35227692127228e-01 8.10093402862549e+00 797 
-1.70384514331818e+00 -8.65149497985840e-01 8.08801555633545e+00 798 
-8.68283927440643e-01 -1.17858374118805e+00 8.08910179138184e+00 799 
-2.38325819373131e-01 -1.16739022731781e+00 8.10111045837402e+00 800 
-1.61406898498535e+00 -1.38168442249298e+00 8.02403450012207e+00 801 
-1.13499867916107e+00 -1.38384759426117e+00 8.03067493438721e+00 802 
9.00166749954224e-01 -1.27959322929382e+00 7.99040508270264e+00 803 
-2.64981716871262e-01 -1.37512433528900e+00 8.09964179992676e+00 804 
-1.63440287113190e+00 -1.69323289394379e+00 7.99631357192993e+00 805 
-1.07731556892395e+00 -1.68631160259247e+00 8.03074645996094e+00 806 
1.24062490463257e+00 -1.68779134750366e+00 8.11238956451416e+00 807 
-9.20661807060242e-01 -1.86440455913544e+00 8.08899688720703e+00 808 
-9.01189446449280e-01 -1.88897109031677e+00 8.08660602569580e+00 809 
-9.30195927619934e-01 -1.91551697254181e+00 8.08978271484375e+00 810 
1.41117370128632e+00 -1.84113502502441e+00 7.99355936050415e+00 811 
-1.25110793113708e+00 -2.13268327713013e+00 8.05251789093018e+00 812 
-1.24848985671997e+00 -2.14472675323486e+00 8.05025005340576e+00 813 
-7.25634932518005e-01 -2.23217964172363e+00 8.10612106323242e+00 814 
-7.43570804595947e-01 -2.25889563560486e+00 8.11125278472900e+00 815 
-1.27117168903351e+00 -2.31115794181824e+00 8.10760211944580e+00 816 
1.16150712966919e+00 -2.30754017829895e+00 8.00015163421631e+00 817 
-1.18942761421204e+00 -6.89674973487854e-01 8.03835296630859e+00 819 
4.10005182027817e-01 -6.06097936630249e-01 8.00716018676758e+00 820 
-8.97811949253082e-01 3.70095968246460e-01 8.10748100280762e+00 821 
-1.31366050243378e+00 -5.21876662969589e-03 8.01072597503662e+00 822 
-1.09307074546814e+00 -1.33159071207047e-01 8.11112117767334e+00 823 
-5.88226079940796e-01 -1.59332171082497e-01 8.08956432342529e+00 824 
-7.34675645828247e-01 -1.67398750782013e-01 8.10602474212646e+00 825 
-1.45505857467651e+00 -3.12304824590683e-01 7.99386310577393e+00 826 
-1.70292055606842e+00 -3.83044183254242e-01 8.10883331298828e+00 827 
-9.22182202339172e-01 -3.58807206153870e-01 8.10433864593506e+00 828 
4.56737309694290e-01 -3.74530851840973e-01 8.09933757781982e+00 829 
-1.21309123933315e-01 -6.15117907524109e-01 8.06756782531738e+00 830 
-1.44986629486084e+00 -7.60767638683319e-01 8.04681968688965e+00 831 
7.72649645805359e-01 -6.15414500236511e-01 8.09452247619629e+00 832 
-1.23033499717712e+00 -9.85883653163910e-01 8.10841846466064e+00 834 
-1.35481238365173e+00 -1.04044592380524e+00 8.04208946228027e+00 835 
-6.75526440143585e-01 -1.02067399024963e+00 8.08988094329834e+00 836 
-1.13203191757202e+00 -1.07353985309601e+00 8.04031562805176e+00 837 
-1.46218478679657e+00 -1.10441458225250e+00 7.99845266342163e+00 838 
-1.40324950218201e+00 -1.49494504928589e+00 8.04246997833252e+00 839 
-8.12282383441925e-01 -1.56942856311798e+00 8.09557723999023e+00 840 
-1.51426851749420e+00 -1.72759592533112e+00 7.99817895889282e+00 841 
6.29499971866608e-01 -1.59017586708069e+00 8.03492259979248e+00 842 
7.70246803760529e-01 -1.64126229286194e+00 8.09770870208740e+00 843 
-7.14533627033234e-01 -1.84305882453918e+00 8.08063793182373e+00 844 
-1.20019960403442e+00 -1.98531365394592e+00 8.03460788726807e+00 845 
-1.16410255432129e+00 -2.09437894821167e+00 8.11076259613037e+00 846 
-1.52577912807465e+00 -2.34047365188599e+00 8.11496543884277e+00 847 
6.11048817634583e-01 -2.18768072128296e+00 7.98720073699951e+00 848 
-1.38316118717194e+00 -2.50314950942993e+00 8.03704166412354e+00 849 
-7.51011610031128e-01 -2.49297857284546e+00 8.03418731689453e+00 850 
6.31062567234039e-01 6.11164271831512e-01 8.09394168853760e+00 851 
-1.42689025402069e+00 -7.09431946277618e-01 8.05577945709229e+00 852 
-1.03772252798080e-01 5.74337661266327e-01 8.09784507751465e+00 853 
-9.98420715332031e-01 4.40919518470764e-01 8.10573005676270e+00 854 
-6.54740393161774e-01 3.33334267139435e-01 8.06647205352783e+00 856 
-9.99426305294037e-01 2.73967117071152e-01 7.99313879013062e+00 857 
-7.88391649723053e-01 -5.53122572600842e-02 8.10875797271729e+00 858 
-1.19894456863403e+00 -1.26197591423988e-01 8.10902404785156e+00 859 
-5.84442198276520e-01 -1.69997021555901e-01 8.08961391448975e+00 860 
-1.09433794021606e+00 -6.10626041889191e-01 8.10435676574707e+00 861 
-1.70533013343811e+00 -6.83997631072998e-01 8.10700225830078e+00 862 
-5.62880337238312e-01 -6.31076812744141e-01 8.10767555236816e+00 863 
1.43409705162048e+00 -5.13806700706482e-01 8.09891891479492e+00 864 
-8.77555847167969e-01 -7.19885587692261e-01 8.10699558258057e+00 866 
-1.24598205089569e+00 -1.51951551437378e+00 8.05666160583496e+00 867 
-1.20704817771912e+00 -1.55615580081940e+00 8.02976036071777e+00 868 
-1.56251919269562e+00 -1.72217845916748e+00 7.99407100677490e+00 869 
-3.95824700593948e-01 -2.18834662437439e+00 8.10843181610107e+00 870 
-7.26722180843353e-01 -2.23876857757568e+00 8.10539531707764e+00 871 
-9.35100376605988e-01 -2.37115716934204e+00 8.02767848968506e+00 872 
-1.67750012874603e+00 -6.35451450943947e-02 8.11191749572754e+00 873 
-1.58585429191589e+00 -1.22171945869923e-01 8.10953140258789e+00 874 
-5.76735377311707e-01 -1.92370489239693e-01 8.08936977386475e+00 875 
-6.26130223274231e-01 -2.68834412097931e-01 8.10546398162842e+00 876 
-1.40544044971466e+00 -4.18465971946716e-01 8.11039829254150e+00 877 
-2.42304056882858e-01 -4.12297159433365e-01 8.03675270080566e+00 878 
-1.56286168098450e+00 -5.16978979110718e-01 8.10667991638184e+00 879 
-1.56712532043457e-01 -4.45628821849823e-01 8.06793212890625e+00 880 
-9.54199969768524e-01 -5.07673203945160e-01 8.07657814025879e+00 881 
5.50164841115475e-02 -4.57001686096191e-01 8.05309867858887e+00 882 
-8.25596272945404e-01 -5.42511940002441e-01 8.10366535186768e+00 883 
-1.46284556388855e+00 -7.50254631042480e-01 8.05013656616211e+00 884 
-1.00831174850464e+00 -8.41175198554993e-01 8.04413414001465e+00 885 
1.17640280723572e+00 -7.27021515369415e-01 8.09188652038574e+00 886 
-1.53435480594635e+00 -1.07465076446533e+00 7.99222850799561e+00 887 
-1.49307203292847e+00 -1.09682321548462e+00 7.99203681945801e+00 888 
8.31213414669037e-01 -9.25049901008606e-01 8.03091812133789e+00 889 
1.38524472713470e+00 -8.87116193771362e-01 8.09482002258301e+00 890 
-1.38954806327820e+00 -1.28504645824432e+00 8.04392528533936e+00 891 
-1.28314450383186e-01 -1.21299266815186e+00 8.02417850494385e+00 892 
2.54121154546738e-01 -1.23705291748047e+00 8.10199069976807e+00 893 
-3.53371277451515e-02 -1.43503749370575e+00 8.09132671356201e+00 894 
7.56186068058014e-01 -1.61720049381256e+00 8.09856986999512e+00 895 
-1.53821885585785e-01 -1.76151251792908e+00 8.02293586730957e+00 896 
8.05636703968048e-01 -1.72550940513611e+00 8.09347343444824e+00 897 
-9.24213826656342e-01 -1.88274812698364e+00 8.08840847015381e+00 898 
-1.26045382022858e+00 -1.95544934272766e+00 8.03843593597412e+00 899 
1.46859478950500e+00 -1.76171123981476e+00 8.09423637390137e+00 900 
-9.10874545574188e-01 -2.48703837394714e+00 8.03461837768555e+00 902 
-9.23090398311615e-01 -2.49929809570312e+00 8.02256679534912e+00 903 
1.36807727813721e+00 -2.36342334747314e+00 8.00184535980225e+00 904 
-9.34069633483887e-01 -3.14289182424545e-01 8.03187084197998e+00 905 
1.02941977977753e+00 -1.14991927146912e+00 8.10041236877441e+00 906 
-1.25910210609436e+00 -1.73108112812042e+00 8.10401344299316e+00 907 
8.51619839668274e-01 -2.10997247695923e+00 7.97196102142334e+00 908 
7.98447728157043e-01 -2.40217971801758e+00 8.04055023193359e+00 909 
3.83591443300247e-01 5.92689514160156e-01 8.03354072570801e+00 910 
6.12633049488068e-01 1.73591017723083e-01 8.01545047760010e+00 911 
-1.31501972675323e+00 5.95400389283895e-03 8.01062774658203e+00 912 
-8.75979781150818e-01 3.24116721749306e-02 8.01726055145264e+00 913 
1.07784748077393e+00 1.19545146822929e-01 8.10146141052246e+00 914 
-1.59416687488556e+00 -1.03776924312115e-01 8.10982799530029e+00 915 
4.24499392509460e-01 -1.15520127117634e-01 8.00693893432617e+00 916 
-1.41666686534882e+00 -3.27646344900131e-01 8.11272144317627e+00 917 
1.64969623088837e+00 -1.67342960834503e-01 8.02032375335693e+00 918 
3.95976543426514e-01 -5.02233803272247e-01 8.00897216796875e+00 919 
-9.47743356227875e-01 -6.30197644233704e-01 8.10050296783447e+00 920 
-1.15819680690765e+00 -7.08304286003113e-01 8.02671051025391e+00 922 
-1.06808078289032e+00 -1.00985586643219e+00 8.06220149993896e+00 923 
-1.54744601249695e+00 -1.06786966323853e+00 7.99242877960205e+00 924 
1.21257388591766e+00 -9.42376017570496e-01 8.09402561187744e+00 925 
-1.28234112262726e+00 -1.34117519855499e+00 8.04414653778076e+00 926 
-1.02881228923798e+00 -1.54485654830933e+00 8.10669326782227e+00 927 
-1.29279112815857e+00 -1.59348809719086e+00 8.05290699005127e+00 928 
7.29197978973389e-01 -1.58585107326508e+00 8.10009479522705e+00 929 
7.51545667648315e-01 -1.61007821559906e+00 8.09904003143311e+00 930 
-5.11959493160248e-01 -1.78074598312378e+00 8.10520648956299e+00 931 
-6.50621771812439e-01 -1.80491590499878e+00 8.07885360717773e+00 932 
-1.61204135417938e+00 -1.94045889377594e+00 8.04093360900879e+00 933 
1.71177327632904e+00 -1.86000466346741e+00 8.09078121185303e+00 935 
1.46227729320526e+00 -2.09169030189514e+00 8.09539222717285e+00 936 
-7.52508699893951e-01 -2.25868391990662e+00 8.11163139343262e+00 937 
-8.88589084148407e-01 -2.50034689903259e+00 8.02236080169678e+00 938 
1.24211680889130e+00 -1.77992188930511e+00 8.08053207397461e+00 939 
-4.02008354663849e-01 5.60045957565308e-01 8.02427196502686e+00 940 
-8.11200141906738e-01 4.37907785177231e-01 8.10789585113525e+00 941 
-9.67648327350616e-01 4.12819743156433e-01 8.10825157165527e+00 942 
-1.07067573070526e+00 -6.48145098239183e-03 8.11038303375244e+00 943 
3.57237339019775e-01 -9.98568236827850e-02 8.09197330474854e+00 944 
-1.16227245330811e+00 3.79000604152679e-01 8.10625171661377e+00 946 
-1.79875421524048e+00 -8.30928161740303e-02 8.11166286468506e+00 948 
-1.37322866916656e+00 -1.79725480079651e+00 8.10818195343018e+00 949 
-8.86647224426270e-01 -2.21005964279175e+00 8.11102199554443e+00 950 
-1.49813783168793e+00 -2.38060069084167e+00 8.11865520477295e+00 952 
-1.20622947812080e-01 -2.52962207794189e+00 8.11475467681885e+00 953 
1.60680357366800e-02 -2.53837418556213e+00 8.01825141906738e+00 954 
5.79521477222443e-01 -2.56469368934631e+00 8.09761810302734e+00 955 
-1.75545167922974e+00 4.87926363945007e-01 8.12062644958496e+00 956 
-1.05982792377472e+00 6.65375078096986e-03 8.11188602447510e+00 957 
-9.68642905354500e-02 -2.44546890258789e+00 8.08221721649170e+00 958 
5.21085321903229e-01 2.92902946472168e-01 8.01867103576660e+00 959 
-2.65053719282150e-01 -1.35361552238464e+00 8.09910106658936e+00 960 
4.85436916351318e-01 -1.67689359188080e+00 8.03897571563721e+00 962 
-7.82362520694733e-01 5.46006619930267e-01 8.10353565216064e+00 963 
-3.42967987060547e-01 4.99473839998245e-01 8.08270931243896e+00 964 
-1.34937345981598e-01 1.53991207480431e-01 8.10332012176514e+00 965 
-1.37196922302246e+00 -1.60541689395905e+00 8.04221248626709e+00 966 
7.79310539364815e-02 -2.17915272712708e+00 8.10117626190186e+00 967 
-3.11725556850433e-01 -1.80991733074188e+00 8.10914802551270e+00 968 
-1.03690969944000e+00 -2.14795112609863e+00 8.10605144500732e+00 969 
-1.43031227588654e+00 -4.93565469980240e-01 8.11095333099365e+00 970 
-2.26335123181343e-01 -6.33396863937378e-01 8.03745841979980e+00 971 
-1.72605586051941e+00 -7.41014599800110e-01 8.10791587829590e+00 972 
-1.06099200248718e+00 -1.22756898403168e+00 8.03906536102295e+00 973 
-1.09857308864594e+00 -2.37930107116699e+00 8.02942276000977e+00 975 
-6.34042918682098e-01 -2.76823025196791e-02 8.08959674835205e+00 976 
-3.77043724060059e-01 -1.30860912799835e+00 8.02101802825928e+00 979 
1.64167098701000e-02 -1.86076328158379e-01 8.09882068634033e+00 980 
-6.66432857513428e-01 4.56799507141113e-01 8.10253715515137e+00 981 
6.06714248657227e-01 1.88123404979706e-01 8.01413631439209e+00 982 
-1.53375282883644e-01 -2.54264545440674e+00 8.11407947540283e+00 983 
4.44636106491089e-01 -6.02623522281647e-01 8.00750064849854e+00 984 
-1.49350619316101e+00 -1.58909118175507e+00 8.10843753814697e+00 985 
-1.32248729467392e-01 -2.06348276138306e+00 8.04002857208252e+00 986 
-1.29160797595978e+00 -2.35650920867920e+00 8.10992145538330e+00 987 
-3.64003688097000e-01 4.74961906671524e-01 8.08292961120605e+00 988 
-8.23411524295807e-01 4.23011392354965e-01 8.10680675506592e+00 989 
-8.26532721519470e-01 2.27318018674850e-01 8.06985473632812e+00 990 
2.04472288489342e-01 -4.54261034727097e-01 8.09749507904053e+00 991 
5.59117794036865e-01 2.99346923828125e-01 8.01084899902344e+00 992 
5.50483345985413e-01 -2.54611730575562e+00 8.09077644348145e+00 993 
-1.68770265579224e+00 -8.74202609062195e-01 8.10798168182373e+00 995 
-1.02913117408752e+00 -1.20986557006836e+00 8.03039836883545e+00 996 
-1.65249681472778e+00 4.82687830924988e-01 8.10797786712646e+00 997 
-5.40430188179016e-01 2.83556073904037e-01 8.06875514984131e+00 998 
1.99929550290108e-01 -5.09054780006409e-01 8.09594535827637e+00 999 
-1.36908721923828e+00 -1.88049840927124e+00 8.03876304626465e+00 1000 
4.66352552175522e-01 -7.44852483272552e-01 8.00242614746094e+00 1001 
-3.18837821483612e-01 4.66166853904724e-01 8.08903408050537e+00 1002 
6.06944322586060e-01 3.41369420289993e-01 8.01366233825684e+00 1003 
-9.89772021770477e-01 -9.67447698116302e-01 8.02264022827148e+00 1004 
-7.56867229938507e-01 -2.25438976287842e+00 8.11142444610596e+00 1005 
-1.71324026584625e+00 -4.89927679300308e-01 8.10802078247070e+00 1007 
-3.07627439498901e-01 -6.00555479526520e-01 8.10557937622070e+00 1009 
-7.30130016803741e-01 -1.05011940002441e+00 8.10144805908203e+00 1010 
-1.17434239387512e+00 -2.00888609886169e+00 8.02542209625244e+00 1011 
-3.31659555435181e-01 5.33154129981995e-01 8.09086799621582e+00 1012 
3.57022017240524e-01 -8.75253602862358e-02 8.10090827941895e+00 1013 
-5.01855164766312e-02 -3.10189723968506e-01 8.03793907165527e+00 1014 
-8.32290947437286e-01 -5.32320320606232e-01 8.10253620147705e+00 1015 
-1.68955588340759e+00 -6.87515795230865e-01 8.10413837432861e+00 1016 
-1.16432499885559e+00 -1.39403808116913e+00 8.01963424682617e+00 1017 
-1.11267018318176e+00 -2.48082089424133e+00 8.03062438964844e+00 1018 
1.07623505592346e+00 7.14790880680084e-01 8.09936809539795e+00 1019 
-7.36290395259857e-01 -5.02207756042480e-01 8.03865432739258e+00 1020 
-1.15156996250153e+00 -2.71794259548187e-01 7.95151519775391e+00 1022 
1.35344696044922e+00 2.17346698045731e-01 8.02978515625000e+00 1025 
1.23185634613037e+00 -6.12841686233878e-03 8.09970474243164e+00 1026 
8.86233747005463e-01 -9.15252417325974e-02 8.10632133483887e+00 1027 
7.74580240249634e-01 5.31477294862270e-03 8.05051994323730e+00 1028 
1.75881553441286e-02 -4.43896979093552e-01 8.05466651916504e+00 1029 
1.50498592853546e+00 7.68306612968445e-01 8.09944343566895e+00 1030 
7.87258923053741e-01 8.46317648887634e-01 8.09805583953857e+00 1031 
-1.29365846514702e-01 8.69569718837738e-01 8.00225543975830e+00 1032 
1.05081778019667e-02 9.89698588848114e-01 8.04168796539307e+00 1033 
3.93261713907123e-03 1.22478401660919e+00 8.09766292572021e+00 1034 
6.24189317226410e-01 1.30257630348206e+00 8.09469604492188e+00 1035 
-4.39446032047272e-01 1.31549620628357e+00 8.10657691955566e+00 1036 
-8.20322155952454e-01 1.68870079517365e+00 8.10209178924561e+00 1038 
1.58371078968048e+00 1.95926868915558e+00 8.02934360504150e+00 1039 
-2.55857229232788e-01 1.97000515460968e+00 8.10254001617432e+00 1040 
-3.15798610448837e-01 2.07983446121216e+00 8.01124095916748e+00 1041 
-4.87472027540207e-01 2.31608843803406e+00 8.09798145294189e+00 1042 
-3.07448983192444e-01 2.35323548316956e+00 8.03710460662842e+00 1043 
1.58851873874664e+00 -4.70189541578293e-01 8.01191139221191e+00 1044 
2.02497169375420e-01 2.30608510971069e+00 8.01071929931641e+00 1045 
6.01994633674622e-01 -4.81480032205582e-01 8.03396987915039e+00 1046 
6.81214034557343e-01 -4.05961066484451e-01 8.09539985656738e+00 1047 
8.58401358127594e-02 -1.56450122594833e-01 8.09835243225098e+00 1048 
2.77560621500015e-01 2.73223251104355e-01 8.09718132019043e+00 1049 
-7.68483102321625e-01 6.48640751838684e-01 8.09880542755127e+00 1050 
3.71626168489456e-01 8.14794898033142e-01 8.11311149597168e+00 1051 
-5.72424829006195e-01 7.87376463413239e-01 8.02845096588135e+00 1052 
5.22836089134216e-01 9.57601547241211e-01 8.10905647277832e+00 1053 
5.27241468429565e-01 9.69600915908813e-01 8.10922718048096e+00 1054 
1.25930249691010e+00 9.92758929729462e-01 8.00397777557373e+00 1055 
-3.13908769749105e-03 9.82484042644501e-01 8.03544235229492e+00 1056 
1.24448394775391e+00 -9.05806273221970e-02 8.10446357727051e+00 1057 
9.84590649604797e-01 2.42923545837402e+00 8.09514999389648e+00 1058 
9.21350538730621e-01 1.08191549777985e+00 8.09783554077148e+00 1059 
1.11434376239777e+00 1.07864964008331e+00 8.03611660003662e+00 1060 
-5.20520582795143e-02 1.09073936939240e+00 8.02259922027588e+00 1061 
-5.65960764884949e-01 1.62530553340912e+00 8.10746574401855e+00 1062 
8.42735171318054e-01 1.67973279953003e+00 8.09641933441162e+00 1063 
-7.90813624858856e-01 1.69354629516602e+00 8.10318756103516e+00 1064 
1.92981347441673e-01 1.83098578453064e+00 8.11087894439697e+00 1065 
6.28699064254761e-01 1.99015676975250e+00 8.09833908081055e+00 1066 
2.88944065570831e-01 2.08454418182373e+00 8.01523303985596e+00 1067 
-5.97980260848999e-01 2.31193184852600e+00 8.10920143127441e+00 1068 
6.86870291829109e-02 1.01510286331177e+00 8.11005306243896e+00 1069 
1.47328126430511e+00 -7.80260622501373e-01 8.09339618682861e+00 1070 
1.13058793544769e+00 -3.39904159307480e-01 8.00817108154297e+00 1071 
1.61051821708679e+00 7.22251832485199e-02 8.08751678466797e+00 1072 
1.00145852565765e+00 3.85944187641144e-01 8.01639556884766e+00 1073 
1.33696937561035e+00 7.75554537773132e-01 8.01540565490723e+00 1074 
-1.29264816641808e-01 7.42306768894196e-01 8.02097034454346e+00 1075 
5.57808697223663e-01 9.73802745342255e-01 8.10968875885010e+00 1076 
3.40749830007553e-01 1.05491232872009e+00 8.11024188995361e+00 1077 
1.62707686424255e+00 1.33529567718506e+00 8.01018142700195e+00 1078 
8.03325653076172e-01 1.36659991741180e+00 8.09419918060303e+00 1079 
1.90593466162682e-01 1.41677665710449e+00 8.10844421386719e+00 1080 
8.46127331256866e-01 1.45681476593018e+00 8.03647422790527e+00 1081 
1.15172636508942e+00 1.69124329090118e+00 8.03245449066162e+00 1082 
-4.20940726995468e-01 2.00265097618103e+00 8.04531192779541e+00 1084 
-3.00828546285629e-01 2.34715533256531e+00 8.03869247436523e+00 1085 
1.47880971431732e+00 2.49421596527100e+00 8.00075721740723e+00 1086 
8.07079553604126e-01 1.97518551349640e+00 8.09659099578857e+00 1087 
1.17637121677399e+00 2.22811508178711e+00 8.09903621673584e+00 1088 
-5.29449582099915e-01 2.37415194511414e+00 8.10281372070312e+00 1089 
1.29629147052765e+00 4.99130755662918e-01 8.10184860229492e+00 1090 
2.85926461219788e-01 9.89436089992523e-01 8.11224842071533e+00 1091 
8.84655535221100e-01 1.12696146965027e+00 8.09737110137939e+00 1092 
4.81653869152069e-01 1.75600838661194e+00 8.10830783843994e+00 1093 
1.68492662906647e+00 -3.40653419494629e-01 8.01246356964111e+00 1094 
-7.01400279998779e-01 -1.55421122908592e-01 8.10643577575684e+00 1095 
6.34732306003571e-01 1.35885223746300e-01 8.01881408691406e+00 1096 
2.09390938282013e-01 2.37475305795670e-01 8.09671401977539e+00 1097 
4.58524614572525e-01 2.45474457740784e-01 8.09800529479980e+00 1098 
4.30955588817596e-01 8.97671341896057e-01 8.10942459106445e+00 1099 
5.12160360813141e-01 9.25814986228943e-01 8.10926532745361e+00 1100 
-2.80319124460220e-01 9.98904943466187e-01 8.09681797027588e+00 1101 
1.09209799766541e+00 1.36308312416077e+00 7.99082994461060e+00 1102 
-5.26317715644836e-01 1.54008412361145e+00 8.10756397247314e+00 1103 
-6.39609098434448e-01 1.71873140335083e+00 8.10584735870361e+00 1104 
1.57958769798279e+00 1.89857435226440e+00 8.08822631835938e+00 1105 
-6.58101499080658e-01 2.07197332382202e+00 7.99644804000854e+00 1106 
6.27803206443787e-02 2.43573975563049e+00 8.09885597229004e+00 1107 
1.14983391761780e+00 2.15501832962036e+00 8.10193538665771e+00 1108 
9.23753023147583e-01 -1.82873070240021e-01 8.10721969604492e+00 1109 
2.13057339191437e-01 6.93921864032745e-01 8.09759998321533e+00 1110 
2.36940011382103e-02 7.00849711894989e-01 8.09931755065918e+00 1111 
1.57488954067230e+00 7.63507246971130e-01 8.00297260284424e+00 1112 
-6.45844161510468e-01 1.10647737979889e+00 8.10610675811768e+00 1114 
5.55361926555634e-01 1.31319177150726e+00 8.10616111755371e+00 1115 
1.69411432743073e+00 1.40107417106628e+00 8.08988666534424e+00 1116 
9.52069461345673e-01 1.40992522239685e+00 8.09215068817139e+00 1117 
6.86058700084686e-01 1.52456355094910e+00 8.10503768920898e+00 1118 
1.20941102504730e+00 1.84979617595673e+00 8.09948921203613e+00 1119 
-6.45237743854523e-01 1.91723966598511e+00 8.09717655181885e+00 1120 
-6.91243469715118e-01 2.16412544250488e+00 8.10775279998779e+00 1121 
-9.76219587028027e-03 2.45417046546936e+00 8.09943008422852e+00 1122 
-3.20693105459213e-02 2.14074325561523e+00 8.10865211486816e+00 1123 
8.88543054461479e-02 2.27989315986633e+00 8.09677791595459e+00 1124 
8.17240059375763e-01 1.97821307182312e+00 8.09622859954834e+00 1125 
8.29851090908051e-01 1.97925293445587e+00 8.09541034698486e+00 1126 
1.20344877243042e+00 5.46274125576019e-01 8.00733470916748e+00 1127 
5.31690657138824e-01 9.62594568729401e-01 8.10837459564209e+00 1129 
-7.29112401604652e-02 1.15817821025848e+00 8.02531051635742e+00 1130 
9.38859641551971e-01 1.40339910984039e+00 8.09204769134521e+00 1131 
-5.29073953628540e-01 1.52421998977661e+00 8.10763072967529e+00 1132 
1.61756420135498e+00 1.58854150772095e+00 8.09033966064453e+00 1133 
8.37765187025070e-02 1.70281481742859e+00 8.05400753021240e+00 1134 
-8.07138979434967e-01 1.80200469493866e+00 8.07923507690430e+00 1135 
1.02844297885895e+00 2.04052853584290e+00 8.05704212188721e+00 1136 
7.53520727157593e-01 2.05786252021790e+00 8.01097774505615e+00 1137 
1.56234264373779e+00 2.48805332183838e+00 7.99972295761108e+00 1138 
1.59191548824310e+00 2.50097918510437e+00 7.99919319152832e+00 1139 
2.91016191244125e-01 -1.81574672460556e-01 8.01443958282471e+00 1140 
1.41114878654480e+00 5.46369850635529e-01 8.09552478790283e+00 1141 
-1.87788486480713e-01 -2.25288343429565e+00 8.10175132751465e+00 1142 
1.53639435768127e+00 -9.64817762374878e-01 8.03789520263672e+00 1143 
1.00082957744598e+00 -1.82398736476898e+00 8.09877872467041e+00 1144 
1.29890573024750e+00 -1.20055365562439e+00 8.09400463104248e+00 1145 
-1.85280188918114e-01 -7.36033201217651e-01 8.08603096008301e+00 1146 
5.19559562206268e-01 9.66306388378143e-01 8.10905456542969e+00 1147 
9.00453031063080e-02 9.66350734233856e-01 8.10907936096191e+00 1148 
9.19261395931244e-01 1.09046030044556e+00 8.09848308563232e+00 1150 
-4.22441005706787e-01 1.28823769092560e+00 8.10738563537598e+00 1151 
-5.01668930053711e-01 1.39165318012238e+00 8.10728359222412e+00 1152 
-7.78612911701202e-01 1.69148600101471e+00 8.09859752655029e+00 1154 
6.86151266098022e-01 2.44697117805481e+00 8.09502983093262e+00 1155 
-2.71863350644708e-03 2.45268273353577e+00 8.10373306274414e+00 1156 
9.17220711708069e-01 1.25734317302704e+00 8.03464698791504e+00 1157 
-2.98761695623398e-01 2.06129217147827e+00 8.01064682006836e+00 1158 
2.77471214532852e-01 -2.45184159278870e+00 8.07246780395508e+00 1159 
1.62204980850220e+00 -1.77741855382919e-01 8.00641632080078e+00 1160 
-3.34401398897171e-01 7.78992116451263e-01 8.10292243957520e+00 1161 
5.62254726886749e-01 9.84575569629669e-01 8.10854625701904e+00 1162 
1.54487669467926e+00 1.87044620513916e+00 8.09179306030273e+00 1164 
-6.52666330337524e-01 1.81572830677032e+00 8.10286045074463e+00 1165 
-4.08412337303162e-01 1.25759088993073e+00 8.10701847076416e+00 1166 
8.68778526782990e-02 1.88895547389984e+00 8.04506397247314e+00 1167 
6.89656198024750e-01 2.03378248214722e+00 8.01039409637451e+00 1168 
8.03873121738434e-01 7.79334008693695e-01 8.10483360290527e+00 1169 
-2.01961606740952e-01 1.21846866607666e+00 8.10383033752441e+00 1170 
4.66752916574478e-01 1.83972585201263e+00 8.11294174194336e+00 1172 
-2.76103883981705e-01 1.84270703792572e+00 8.11409187316895e+00 1173 
1.06843328475952e+00 2.45917057991028e+00 8.09280014038086e+00 1174 
5.49345493316650e-01 2.04178357124329e+00 8.02025794982910e+00 1175 
4.49065953493118e-01 2.25656652450562e+00 8.09808444976807e+00 1176 
-2.17636302113533e-01 1.84608578681946e+00 8.10127830505371e+00 1177 
1.15290880203247e+00 2.31173038482666e+00 8.09316825866699e+00 1178 
1.25776422023773e+00 -7.57693275809288e-02 8.09934043884277e+00 1179 
7.52808272838593e-01 -5.88242471218109e-01 8.09343338012695e+00 1180 
1.25599288940430e+00 8.25228214263916e-01 7.99785518646240e+00 1181 
1.05386018753052e+00 8.69221687316895e-01 8.00312042236328e+00 1182 
6.53206706047058e-01 1.22640287876129e+00 8.06390476226807e+00 1183 
-1.81973189115524e-01 1.21970522403717e+00 8.10266208648682e+00 1184 
-6.99789702892303e-01 1.24552977085114e+00 8.06431198120117e+00 1185 
-6.99269056320190e-01 1.29506278038025e+00 8.03341197967529e+00 1186 
1.41715168952942e+00 1.43066763877869e+00 8.06088161468506e+00 1187 
1.14180219173431e+00 1.43941676616669e+00 8.09540081024170e+00 1188 
-4.97508883476257e-01 1.44400441646576e+00 8.10641574859619e+00 1189 
3.98868888616562e-01 1.59293508529663e+00 8.09601974487305e+00 1190 
8.47342133522034e-01 1.63935124874115e+00 8.09670543670654e+00 1191 
1.05267953872681e+00 1.64631175994873e+00 8.09452438354492e+00 1192 
1.68593049049377e+00 1.68441092967987e+00 8.06206989288330e+00 1193 
1.45765292644501e+00 1.80788743495941e+00 8.03040409088135e+00 1194 
4.68985617160797e-01 1.83280193805695e+00 8.10961723327637e+00 1195 
-2.88413703441620e-01 1.97054982185364e+00 8.10449504852295e+00 1196 
3.07712912559509e-01 2.02573060989380e+00 8.01411724090576e+00 1197 
3.25663924217224e-01 2.02580356597900e+00 8.01355266571045e+00 1198 
3.44338566064835e-01 2.02631568908691e+00 8.01370620727539e+00 1199 
-2.97377705574036e-01 2.08130598068237e+00 8.01379489898682e+00 1200 
4.23471629619598e-01 2.39234542846680e+00 8.00223445892334e+00 1201 
7.55356326699257e-02 2.42366266250610e+00 8.10210990905762e+00 1202 
-2.40303680300713e-01 2.58380860090256e-01 8.08817100524902e+00 1203 
2.50084966421127e-01 2.39590549468994e+00 7.99674129486084e+00 1204 
8.44706833362579e-01 -1.02614033222198e+00 7.98633432388306e+00 1205 
-3.39527517557144e-01 -3.44058014452457e-02 8.10762786865234e+00 1206 
7.98030853271484e-01 5.57140469551086e-01 8.10228919982910e+00 1207 
1.56532514095306e+00 7.03200578689575e-01 8.01618003845215e+00 1208 
-4.89601254463196e-01 7.04171955585480e-01 8.03455066680908e+00 1209 
-2.58409559726715e-01 8.94452214241028e-01 8.10578536987305e+00 1210 
1.22032880783081e+00 2.35749101638794e+00 8.09158420562744e+00 1211 
9.50426638126373e-01 2.47054362297058e+00 8.09843730926514e+00 1212 
1.22626483440399e+00 2.38784193992615e+00 8.09125232696533e+00 1213 
9.13260698318481e-01 2.33899664878845e+00 8.08415222167969e+00 1214 
-4.15626823902130e-01 1.09038662910461e+00 8.10223007202148e+00 1215 
-6.94428741931915e-01 1.25763702392578e+00 8.06452465057373e+00 1216 
1.42576920986176e+00 1.40199041366577e+00 8.06294155120850e+00 1217 
1.14915144443512e+00 1.42340099811554e+00 8.09520244598389e+00 1218 
-8.12498211860657e-01 1.38662803173065e+00 8.10900211334229e+00 1219 
-7.28306472301483e-02 1.39655959606171e+00 8.03714847564697e+00 1220 
-3.49504430778325e-03 1.42091608047485e+00 8.09802150726318e+00 1221 
1.65857225656509e-01 1.42856109142303e+00 8.11130714416504e+00 1222 
-2.81080126762390e-01 1.50313222408295e+00 8.11239337921143e+00 1223 
1.07814085483551e+00 1.58686828613281e+00 8.09526157379150e+00 1224 
-7.91095376014709e-01 1.55692934989929e+00 7.97896337509155e+00 1225 
8.18265825510025e-02 1.88481521606445e+00 8.03848361968994e+00 1226 
4.07903134822845e-01 2.01312637329102e+00 8.01164340972900e+00 1227 
4.25093807280064e-02 2.02252745628357e+00 8.00170421600342e+00 1228 
1.33612883090973e+00 2.25293207168579e+00 8.08788204193115e+00 1229 
-7.50804185867310e-01 2.24231982231140e+00 8.10406208038330e+00 1230 
7.40311563014984e-01 2.28675317764282e+00 8.09710311889648e+00 1231 
5.26482343673706e-01 2.35089778900146e+00 7.98751497268677e+00 1232 
-2.70110070705414e-01 2.35197615623474e+00 8.03514194488525e+00 1233 
1.08817085623741e-01 1.72693157196045e+00 8.06149291992188e+00 1234 
5.41967153549194e-01 2.34785866737366e+00 7.99053668975830e+00 1235 
5.49881339073181e-01 -2.48465752601624e+00 8.11385631561279e+00 1236 
1.23571395874023e+00 -9.63248968124390e-01 8.09716892242432e+00 1237 
1.69792306423187e+00 -4.58702355623245e-01 8.00598430633545e+00 1238 
4.60322469472885e-01 -4.01947021484375e-01 8.09876918792725e+00 1239 
7.21943795681000e-01 -2.01984882354736e-01 8.04050636291504e+00 1240 
-2.14878231287003e-01 2.88154870271683e-01 8.08827686309814e+00 1241 
6.54011428356171e-01 3.63437563180923e-01 8.03806114196777e+00 1242 
-4.40209358930588e-01 7.58813142776489e-01 8.03779411315918e+00 1243 
-4.35443043708801e-01 1.04696631431580e+00 8.04358196258545e+00 1245 
-4.43485796451569e-01 1.05736505985260e+00 8.03385925292969e+00 1246 
1.55453348159790e+00 1.15366613864899e+00 8.00656509399414e+00 1247 
-4.18507933616638e-01 1.12904143333435e+00 8.10194587707520e+00 1248 
1.17841720581055e+00 1.16397178173065e+00 7.99618673324585e+00 1249 
1.11378121376038e+00 1.22205328941345e+00 7.97610378265381e+00 1250 
1.16053330898285e+00 1.22670888900757e+00 7.99929618835449e+00 1251 
-7.38782942295074e-01 1.24694967269897e+00 8.06544494628906e+00 1252 
4.46633249521255e-01 1.59184789657593e+00 8.11385345458984e+00 1253 
3.66359353065491e-01 1.61401546001434e+00 8.02145576477051e+00 1254 
9.00578796863556e-01 1.68413007259369e+00 8.09505271911621e+00 1255 
9.78774130344391e-01 1.73567950725555e+00 8.09432983398438e+00 1256 
8.79809021949768e-01 1.96770119667053e+00 8.09489631652832e+00 1257 
1.69240999221802e+00 1.98904049396515e+00 8.02741622924805e+00 1258 
-3.14726620912552e-01 1.96987962722778e+00 8.10383129119873e+00 1259 
-2.51370877027512e-01 1.97122228145599e+00 8.10174274444580e+00 1260 
4.14404600858688e-01 2.00863003730774e+00 8.01428127288818e+00 1261 
9.74576249718666e-02 2.34985756874084e+00 8.09593391418457e+00 1263 
1.86758592724800e-01 1.82744097709656e+00 8.10912990570068e+00 1264 
2.60789275169373e-01 1.14932227134705e+00 8.11190509796143e+00 1265 
-3.40268462896347e-01 1.57241129875183e+00 8.11564350128174e+00 1266 
-2.30566233396530e-01 1.69710505008698e+00 8.11269569396973e+00 1267 
-2.17697188258171e-01 5.59286892414093e-01 8.09431171417236e+00 1268 
3.66753607988358e-01 1.43735551834106e+00 8.06335449218750e+00 1269 
1.10776901245117e+00 -3.04442882537842e-01 8.00496292114258e+00 1270 
-7.09955096244812e-01 -3.13910812139511e-01 8.10601615905762e+00 1271 
1.49005854129791e+00 8.31082522869110e-01 7.99756908416748e+00 1272 
-7.10093259811401e-01 9.59909498691559e-01 7.98835086822510e+00 1273 
1.61409962177277e+00 1.11151278018951e+00 8.01463603973389e+00 1274 
-2.96485006809235e-01 1.15009272098541e+00 8.10219955444336e+00 1276 
8.32065045833588e-01 1.24856460094452e+00 8.09647750854492e+00 1277 
-7.58853703737259e-02 1.36559867858887e+00 8.03781032562256e+00 1278 
7.28340268135071e-01 1.61053001880646e+00 8.09918308258057e+00 1279 
1.48571431636810e+00 1.63203001022339e+00 8.03053379058838e+00 1280 
9.81148779392242e-01 1.72958469390869e+00 8.09425067901611e+00 1281 
8.40110957622528e-01 2.09650635719299e+00 8.09531879425049e+00 1282 
8.20775151252747e-01 2.12065267562866e+00 8.09506320953369e+00 1283 
-8.33367466926575e-01 2.10867691040039e+00 8.10335445404053e+00 1284 
-1.58139586448669e-01 2.32469725608826e+00 8.08525085449219e+00 1285 
6.29400610923767e-01 2.36557388305664e+00 8.09739208221436e+00 1286 
1.69581389427185e+00 -3.68434458971024e-01 8.00568008422852e+00 1287 
6.69754326343536e-01 -3.67908507585526e-01 8.09946537017822e+00 1288 
-1.39373958110809e-01 1.51472032070160e-01 8.10046672821045e+00 1289 
6.30711674690247e-01 5.20682692527771e-01 8.10497093200684e+00 1290 
6.97123646736145e-01 8.20959985256195e-01 8.10395050048828e+00 1291 
1.58947944641113e+00 9.59532499313354e-01 8.06768321990967e+00 1292 
5.30890107154846e-01 1.04144513607025e+00 8.08584499359131e+00 1293 
1.15887987613678e+00 1.41682565212250e+00 8.09525108337402e+00 1294 
5.35216629505157e-01 1.44481420516968e+00 8.11586952209473e+00 1295 
1.12485468387604e+00 1.50375950336456e+00 8.09514045715332e+00 1296 
3.66043925285339e-01 1.97419083118439e+00 8.09437465667725e+00 1298 
-6.34160101413727e-01 1.96889245510101e+00 8.10169219970703e+00 1300 
-2.61381328105927e-01 2.04400372505188e+00 8.00415802001953e+00 1301 
-1.03523001074791e-01 2.05120182037354e+00 8.01545619964600e+00 1302 
-7.67706215381622e-01 2.11342000961304e+00 8.10294914245605e+00 1303 
7.23796844482422e-01 2.30703401565552e+00 8.09689521789551e+00 1304 
-4.90496277809143e-01 2.40404605865479e+00 8.10587120056152e+00 1305 
2.82841265201569e-01 2.45818662643433e+00 7.99939060211182e+00 1306 
6.99206590652466e-02 2.05086946487427e+00 8.00209712982178e+00 1307 
7.63531476259232e-02 2.05097818374634e+00 8.00290966033936e+00 1308 
