ply
format ascii 1.0
element vertex 699
property double x
property double y
property double size
property short id
end_header
6.25608203125000e+03 2.77333557128906e+02 3.93028736114502e+00 188 
5.73241650390625e+03 1.35713043212891e+02 4.36639547348022e+00 189 
4.80639648437500e+03 2.79478833007812e+03 2.09760856628418e+01 190 
4.96325488281250e+03 3.01753857421875e+03 2.50747203826904e+01 191 
4.59036328125000e+03 4.06307421875000e+03 1.80696010589600e+01 192 
6.00132666015625e+03 1.99372717285156e+03 2.13679065704346e+01 193 
3.71456298828125e+03 3.52283276367188e+03 3.65341911315918e+01 194 
3.58181835937500e+03 6.21258593750000e+03 7.86881256103516e+01 195 
5.08945263671875e+03 7.72159863281250e+03 6.37165880203247e+00 196 
4.51153369140625e+03 5.45824755859375e+03 6.64354181289673e+00 197 
3.68412890625000e+03 5.47015917968750e+03 6.99132299423218e+00 198 
5.78989440917969e+02 5.14794628906250e+03 6.34555435180664e+00 199 
2.37001635742188e+03 4.93112548828125e+03 5.92105150222778e+00 200 
4.52994140625000e+03 1.98213659667969e+03 6.66056966781616e+00 201 
2.59131762695312e+03 7.51607617187500e+03 3.42496442794800e+00 202 
1.38559982299805e+02 7.21726562500000e+03 4.16001176834106e+00 203 
4.56253466796875e+03 7.49070166015625e+03 3.85846948623657e+00 204 
4.53742578125000e+03 6.88632373046875e+03 4.44309139251709e+00 205 
2.27872070312500e+03 6.48602392578125e+03 4.42669868469238e+00 206 
4.20567724609375e+03 6.35670068359375e+03 4.34969425201416e+00 207 
2.27740753173828e+02 6.10017285156250e+03 6.08007001876831e+00 208 
3.68886254882812e+03 5.52181054687500e+03 5.56667709350586e+00 209 
1.22201904296875e+02 4.61960058593750e+03 4.16426372528076e+00 210 
7.17937683105469e+02 3.17984350585938e+03 4.94098901748657e+00 211 
3.77517504882812e+03 3.12875805664062e+03 4.02419853210449e+00 212 
4.28231591796875e+03 3.08694360351562e+03 3.99823713302612e+00 213 
4.43134375000000e+03 3.07080444335938e+03 4.20280313491821e+00 214 
4.21594384765625e+03 2.89080102539062e+03 3.92879724502563e+00 215 
1.46398706054688e+03 2.45366259765625e+03 3.84656500816345e+00 216 
5.45410888671875e+03 2.36775732421875e+03 3.75974750518799e+00 217 
3.05681542968750e+03 2.14839819335938e+03 4.07817506790161e+00 218 
1.38444250488281e+03 2.06712744140625e+03 5.72112417221069e+00 219 
2.04332458496094e+03 1.79743298339844e+03 3.63696742057800e+00 220 
5.41941455078125e+03 1.70988513183594e+03 4.19140481948853e+00 221 
1.90956274414062e+03 1.45046545410156e+03 4.29451799392700e+00 222 
1.28249206542969e+03 1.29879785156250e+03 4.66639518737793e+00 223 
5.32399462890625e+03 1.04974304199219e+03 5.27254629135132e+00 224 
6.97538452148438e+02 5.04584564208984e+02 4.46832275390625e+00 225 
2.86090722656250e+03 5.33466979980469e+02 3.64630842208862e+00 226 
2.14236889648438e+03 2.54651107788086e+02 5.25147581100464e+00 227 
7.45935485839844e+02 1.80544494628906e+02 4.13871383666992e+00 228 
1.44139355468750e+03 9.30007858276367e+01 3.86511445045471e+00 229 
5.54168408203125e+03 8.30403125000000e+03 6.72250652313232e+00 230 
5.11186523437500e+03 7.72940771484375e+03 6.45859575271606e+00 231 
9.28882217407227e+01 6.28542236328125e+03 6.75842809677124e+00 232 
4.42544873046875e+03 5.68384765625000e+03 6.47670698165894e+00 233 
4.49516113281250e+03 5.50152978515625e+03 6.52446699142456e+00 234 
1.30841015625000e+03 1.24489196777344e+03 6.41500663757324e+00 235 
3.54362670898438e+03 9.52404663085938e+02 6.53599119186401e+00 236 
1.76789843750000e+03 8.14791943359375e+03 3.93087720870972e+00 237 
2.41767919921875e+03 7.85769287109375e+03 4.19321823120117e+00 238 
2.70746997070312e+03 7.86790283203125e+03 4.13229513168335e+00 239 
2.13102343750000e+03 7.74763818359375e+03 4.45366001129150e+00 240 
3.66684497070312e+03 7.76399707031250e+03 4.71743297576904e+00 241 
8.30689880371094e+02 7.25670117187500e+03 3.84962368011475e+00 242 
5.92372851562500e+03 7.18425634765625e+03 4.52022123336792e+00 243 
4.49447753906250e+03 1.94908984375000e+03 9.26422977447510e+00 244 
5.76987695312500e+03 4.90173486328125e+03 1.03042211532593e+01 245 
1.95929663085938e+03 2.27229721069336e+02 8.00919818878174e+00 246 
3.99243603515625e+03 6.42052148437500e+03 1.27992897033691e+01 247 
5.88815536499023e+01 7.86830810546875e+03 6.56410980224609e+00 248 
5.53527832031250e+03 6.61116308593750e+03 5.77623748779297e+00 249 
1.74430297851562e+03 5.06858642578125e+03 5.53725862503052e+00 250 
2.35768945312500e+03 5.00259619140625e+03 5.88296651840210e+00 251 
4.47915966796875e+03 3.67363110351562e+03 5.33776617050171e+00 252 
4.76965332031250e+03 8.19862304687500e+03 5.28496932983398e+00 253 
5.23806835937500e+03 7.84410644531250e+03 3.67287898063660e+00 254 
5.71224365234375e+03 7.77393017578125e+03 5.44299745559692e+00 255 
4.69759033203125e+03 7.40231494140625e+03 4.51066446304321e+00 256 
5.06242675781250e+03 7.36872753906250e+03 4.57960653305054e+00 257 
5.29189501953125e+03 6.83879492187500e+03 4.44735813140869e+00 258 
2.29864941406250e+03 6.48067675781250e+03 4.83128309249878e+00 259 
5.50985156250000e+03 6.47673242187500e+03 3.80428051948547e+00 260 
5.81565527343750e+03 6.03340039062500e+03 4.18994760513306e+00 261 
5.70550781250000e+03 5.67710986328125e+03 5.07516479492188e+00 262 
1.07562927246094e+03 5.07223876953125e+03 3.97376322746277e+00 263 
2.17246948242188e+03 4.67173779296875e+03 5.24628019332886e+00 264 
5.02708691406250e+03 4.61052001953125e+03 5.52408218383789e+00 265 
3.07304931640625e+03 4.39679736328125e+03 4.47288846969604e+00 266 
2.96571704101562e+03 4.35568847656250e+03 4.47956848144531e+00 267 
2.94518920898438e+03 4.32336767578125e+03 4.46626949310303e+00 268 
3.59416577148438e+03 4.26119873046875e+03 4.33645439147949e+00 269 
2.23880615234375e+03 4.23016064453125e+03 5.46966266632080e+00 270 
1.85759020996094e+03 3.92837939453125e+03 3.96037483215332e+00 271 
5.58013476562500e+03 3.86759643554688e+03 4.43213129043579e+00 272 
6.11597607421875e+03 3.29562500000000e+03 5.27971982955933e+00 273 
1.57981665039062e+03 2.88069189453125e+03 5.00469398498535e+00 274 
6.28620751953125e+03 2.84469189453125e+03 4.27758836746216e+00 275 
5.88091796875000e+03 2.70109448242188e+03 5.30435323715210e+00 276 
1.97369140625000e+03 2.47116259765625e+03 5.32610464096069e+00 277 
6.64921646118164e+01 2.20630371093750e+03 3.93269443511963e+00 278 
1.04026696777344e+03 1.79836914062500e+03 4.87047195434570e+00 279 
4.98905468750000e+03 1.55314147949219e+03 5.26845979690552e+00 280 
5.40961547851562e+02 1.12430456542969e+03 4.47188425064087e+00 281 
4.00618212890625e+03 1.08062512207031e+03 6.08297538757324e+00 282 
2.16000488281250e+03 1.07580480957031e+03 3.79433870315552e+00 283 
2.14418115234375e+03 4.18686950683594e+02 3.92263174057007e+00 284 
6.05384423828125e+03 5.34010803222656e+02 4.03985404968262e+00 285 
5.84600488281250e+03 6.81563796997070e+01 5.22563791275024e+00 286 
1.98786694335938e+03 7.33634716796875e+03 5.69601488113403e+00 287 
1.60189147949219e+03 7.09853759765625e+03 4.23123931884766e+00 288 
9.59279968261719e+02 6.94384765625000e+03 4.49632787704468e+00 289 
6.09179003906250e+03 6.81699853515625e+03 4.47271966934204e+00 290 
1.14317297363281e+03 6.47459570312500e+03 5.15852069854736e+00 291 
2.28689379882812e+03 6.46436279296875e+03 4.06771945953369e+00 292 
2.51095410156250e+03 6.43903857421875e+03 5.33554124832153e+00 293 
1.32752441406250e+03 6.15859765625000e+03 4.13635730743408e+00 294 
1.32263867187500e+03 5.66895068359375e+03 4.92078495025635e+00 295 
6.61682983398438e+02 2.20120092773438e+03 5.73679256439209e+00 296 
4.92891650390625e+03 2.14789453125000e+03 1.09000978469849e+01 297 
2.96927587890625e+03 1.66704626464844e+03 1.01881713867188e+01 298 
2.86829687500000e+03 1.66531384277344e+03 9.70011806488037e+00 299 
5.67546337890625e+03 5.17228808593750e+03 9.88323116302490e+00 300 
4.59028173828125e+03 4.54088183593750e+03 8.71626472473145e+00 301 
1.94807360839844e+03 2.65957855224609e+02 8.38627719879150e+00 302 
5.10852832031250e+03 6.32298437500000e+03 9.42184734344482e+00 303 
5.74324804687500e+03 6.17812011718750e+03 8.89860630035400e+00 304 
5.06156005859375e+03 4.34430957031250e+03 7.25855779647827e+00 305 
3.07244702148438e+03 2.87658789062500e+03 8.48973274230957e+00 306 
6.06246191406250e+03 2.06737695312500e+03 1.22488250732422e+01 307 
7.19213256835938e+02 2.18953759765625e+03 7.80584192276001e+00 308 
4.17362060546875e+03 1.15890148925781e+03 9.14394187927246e+00 309 
5.74173681640625e+03 1.24059257507324e+02 7.24187183380127e+00 310 
2.94682934570312e+03 4.36106347656250e+03 4.65613746643066e+00 311 
2.97805029296875e+03 4.23557714843750e+03 4.11315298080444e+00 312 
2.07552880859375e+03 3.70667041015625e+03 4.23360967636108e+00 313 
1.49194433593750e+03 3.65140405273438e+03 4.04883384704590e+00 314 
2.59630297851562e+03 3.45624780273438e+03 4.07680225372314e+00 315 
5.83429003906250e+03 2.35821215820312e+03 4.12333679199219e+00 316 
2.88229296875000e+03 2.06067187500000e+03 4.22316455841064e+00 317 
9.39458862304688e+02 2.01869970703125e+03 5.05762767791748e+00 318 
2.27912060546875e+03 1.49318176269531e+03 4.08204174041748e+00 319 
1.34237060546875e+03 1.38484631347656e+03 4.02108144760132e+00 320 
1.60112390136719e+03 1.07564343261719e+03 4.54721164703369e+00 321 
3.16260644531250e+03 1.08350817871094e+03 4.15409803390503e+00 322 
6.86703430175781e+02 9.36176757812500e+02 4.31704854965210e+00 323 
2.21850756835938e+03 3.28116271972656e+02 3.79491353034973e+00 324 
4.72235888671875e+03 2.63040802001953e+02 4.45572614669800e+00 325 
1.66196557617188e+03 1.02256843566895e+02 3.76834154129028e+00 326 
2.38077563476562e+03 5.00710009765625e+03 5.72586059570312e+00 327 
2.39746630859375e+03 4.91165673828125e+03 6.37026309967041e+00 328 
5.04271679687500e+03 4.92705419921875e+03 6.05314970016479e+00 329 
1.88887353515625e+03 1.96947302246094e+03 7.02738618850708e+00 330 
1.04826660156250e+03 1.77615954589844e+03 6.33724546432495e+00 331 
8.06610656738281e+02 1.65496337890625e+03 5.51429128646851e+00 332 
4.96509375000000e+03 2.29081985473633e+02 6.80149459838867e+00 333 
4.96897851562500e+03 8.05844433593750e+03 4.51753854751587e+00 334 
3.03348413085938e+03 7.98624755859375e+03 4.35412883758545e+00 335 
1.73040124511719e+03 7.77024951171875e+03 3.70907711982727e+00 336 
5.34313574218750e+03 7.87855175781250e+03 5.61331033706665e+00 337 
5.70275341796875e+03 7.75415527343750e+03 3.69703245162964e+00 338 
2.75605102539062e+03 7.25594580078125e+03 5.41050243377686e+00 339 
3.64787353515625e+03 6.85798486328125e+03 4.75634002685547e+00 340 
2.14287841796875e+03 6.43444384765625e+03 4.08505630493164e+00 341 
2.16859912109375e+03 6.36914355468750e+03 4.12854528427124e+00 342 
1.26553962707520e+02 6.17518261718750e+03 5.89285993576050e+00 343 
1.88701611328125e+03 6.06476904296875e+03 5.56518363952637e+00 344 
2.77238696289062e+03 5.79454199218750e+03 5.64187717437744e+00 345 
5.06272363281250e+03 5.24973437500000e+03 4.24660015106201e+00 346 
5.65869018554688e+02 4.87356005859375e+03 4.65635395050049e+00 347 
4.74966845703125e+03 4.52231298828125e+03 4.04901885986328e+00 348 
4.56311425781250e+03 4.38496044921875e+03 6.24574899673462e+00 349 
2.98248437500000e+03 4.15026611328125e+03 4.12840890884399e+00 350 
2.65048706054688e+03 3.78104687500000e+03 4.90446186065674e+00 351 
2.06921142578125e+03 3.75664770507812e+03 4.93735265731812e+00 352 
2.56534326171875e+03 3.28932299804688e+03 4.25624752044678e+00 353 
2.31115087890625e+03 2.22581201171875e+03 5.20711946487427e+00 354 
3.77360687255859e+02 1.04153100585938e+03 4.57214117050171e+00 355 
1.55077819824219e+03 9.93770141601562e+02 4.44917821884155e+00 356 
1.13944567871094e+03 7.76495178222656e+02 4.72913742065430e+00 357 
2.71145202636719e+02 6.82441833496094e+02 4.24655246734619e+00 358 
7.63282531738281e+02 5.31049011230469e+02 4.11096906661987e+00 359 
6.25709326171875e+03 2.49910873413086e+02 4.11261701583862e+00 360 
5.31858349609375e+03 7.77858428955078e+01 4.23401451110840e+00 361 
5.56127734375000e+03 8.25194433593750e+03 6.50868797302246e+00 362 
5.75845019531250e+03 6.13788818359375e+03 5.42103719711304e+00 363 
1.29328063964844e+03 5.80515771484375e+03 7.19685125350952e+00 364 
1.35223278808594e+03 4.95461328125000e+03 5.43859338760376e+00 365 
5.23827685546875e+03 4.69552001953125e+03 6.35579681396484e+00 366 
5.28883203125000e+03 3.98573461914062e+03 6.29173851013184e+00 367 
4.51038964843750e+03 3.59217260742188e+03 5.10102653503418e+00 368 
2.61224462890625e+03 7.45089062500000e+03 5.24482059478760e+00 369 
4.77549255371094e+02 7.08715820312500e+03 4.53990364074707e+00 370 
5.93627099609375e+03 7.20762792968750e+03 5.40066051483154e+00 371 
2.08770483398438e+03 7.04309765625000e+03 4.64753627777100e+00 372 
2.11531665039062e+03 6.95139306640625e+03 4.81048679351807e+00 373 
1.08122998046875e+03 6.27225341796875e+03 5.93951463699341e+00 374 
1.11726098632812e+03 6.24665283203125e+03 4.20301532745361e+00 375 
3.72007958984375e+03 5.38363232421875e+03 5.95802307128906e+00 376 
4.63956817626953e+02 5.13618505859375e+03 4.69084262847900e+00 377 
5.87937683105469e+02 4.75707666015625e+03 3.84041166305542e+00 378 
5.95632263183594e+02 4.72618994140625e+03 3.41314673423767e+00 379 
3.23042022705078e+02 4.04054101562500e+03 4.06662797927856e+00 380 
2.25875561523438e+03 3.90640673828125e+03 4.32753419876099e+00 381 
1.27109204101562e+03 3.84272241210938e+03 4.16207265853882e+00 382 
2.14852465820312e+03 3.77097631835938e+03 4.85636854171753e+00 383 
4.34245751953125e+03 3.30426245117188e+03 4.85882997512817e+00 384 
1.83063891601562e+03 2.92059790039062e+03 5.26121759414673e+00 385 
4.04240966796875e+03 2.86636547851562e+03 3.81430768966675e+00 386 
2.07363378906250e+03 2.55841601562500e+03 4.16144943237305e+00 387 
6.41249313354492e+01 1.70177099609375e+03 5.40398597717285e+00 388 
2.94804223632812e+03 1.74066162109375e+03 3.77840161323547e+00 389 
6.17731738281250e+03 1.75405322265625e+03 4.36945724487305e+00 390 
4.72755175781250e+03 1.47119409179688e+03 5.21659040451050e+00 391 
4.07602758789062e+03 1.17419897460938e+03 6.02219533920288e+00 392 
3.37482714843750e+03 9.83541931152344e+02 5.31872034072876e+00 393 
1.41484484863281e+03 6.09801269531250e+02 3.89739346504211e+00 394 
6.06663964843750e+03 6.00848876953125e+03 5.76194000244141e+00 395 
4.45360058593750e+03 5.61084277343750e+03 6.61696195602417e+00 396 
2.36197778320312e+03 4.97849853515625e+03 6.10960340499878e+00 397 
2.98851757812500e+03 1.62867395019531e+03 6.94372224807739e+00 398 
4.04671411132812e+03 3.50643310546875e+02 6.72808074951172e+00 399 
4.98056689453125e+03 2.06203018188477e+02 6.89422988891602e+00 400 
4.66743554687500e+03 8.40698925781250e+03 4.94220447540283e+00 401 
4.12434265136719e+02 8.16664648437500e+03 4.36429834365845e+00 402 
2.12194238281250e+03 7.74461816406250e+03 4.21447086334229e+00 403 
6.48648803710938e+02 7.56121728515625e+03 4.37294435501099e+00 404 
7.03970336914062e+02 7.18189941406250e+03 3.71332621574402e+00 405 
3.52900122070312e+03 7.28204736328125e+03 5.42007064819336e+00 406 
3.95258789062500e+02 7.09687255859375e+03 5.37252616882324e+00 407 
5.94247900390625e+03 7.19347460937500e+03 5.24931907653809e+00 408 
5.47231738281250e+03 6.93016308593750e+03 3.86989998817444e+00 409 
3.23638818359375e+03 5.97438085937500e+03 3.88327097892761e+00 410 
3.28517089843750e+03 5.91224951171875e+03 4.20336437225342e+00 411 
3.09580566406250e+03 4.98211669921875e+03 4.59119462966919e+00 412 
8.64336547851562e+02 4.76496777343750e+03 3.93361759185791e+00 413 
6.89664611816406e+02 4.01732104492188e+03 5.22572994232178e+00 414 
3.39358715820312e+03 4.01622290039062e+03 4.37789392471313e+00 415 
6.31681054687500e+03 3.67370971679688e+03 3.87768793106079e+00 416 
6.18009814453125e+03 3.25102661132812e+03 4.78966474533081e+00 417 
4.19062792968750e+03 2.99694555664062e+03 3.90420269966125e+00 418 
4.13076367187500e+03 2.99443945312500e+03 3.95252490043640e+00 419 
3.88416479492188e+03 2.85273608398438e+03 5.09027910232544e+00 420 
2.83481274414062e+03 2.26528710937500e+03 3.88870716094971e+00 421 
4.94355175781250e+03 2.27471899414062e+03 4.45434141159058e+00 422 
6.12938574218750e+03 1.92579162597656e+03 5.04781150817871e+00 423 
4.96124169921875e+03 1.56616406250000e+03 4.70427513122559e+00 424 
6.25901025390625e+03 1.55447180175781e+03 3.72000837326050e+00 425 
2.36256616210938e+03 1.35889636230469e+03 3.61587524414062e+00 426 
4.76243652343750e+03 1.34013317871094e+03 4.84892463684082e+00 427 
3.32086108398438e+03 1.24688085937500e+03 3.97579956054688e+00 428 
1.51416162109375e+03 9.14484375000000e+02 3.93724203109741e+00 429 
9.35149963378906e+02 8.40025390625000e+02 3.93830728530884e+00 430 
4.71191699218750e+03 6.24036071777344e+02 3.81552386283875e+00 431 
2.30283789062500e+03 2.00683868408203e+02 4.63272380828857e+00 432 
5.26653466796875e+03 9.57570571899414e+01 3.67010045051575e+00 433 
4.47393554687500e+03 6.86253125000000e+03 4.83932304382324e+00 434 
5.68694531250000e+03 6.71743115234375e+03 3.47769355773926e+00 435 
2.80669482421875e+03 5.73763330078125e+03 3.83862304687500e+00 436 
2.43258886718750e+03 5.01583935546875e+03 5.59654235839844e+00 437 
3.11409716796875e+03 4.28708935546875e+03 4.22711324691772e+00 438 
1.71147192382812e+03 3.37268188476562e+03 4.13343334197998e+00 439 
3.37882470703125e+03 2.25515307617188e+03 4.20042276382446e+00 440 
6.23266601562500e+03 1.46729895019531e+03 4.04302549362183e+00 441 
5.54208544921875e+03 1.32149890136719e+03 5.67668247222900e+00 442 
6.34041442871094e+01 1.07887988281250e+03 4.48528242111206e+00 443 
1.32633813476562e+03 1.03759179687500e+03 4.25496435165405e+00 444 
3.19947534179688e+03 1.09270739746094e+03 3.76400232315063e+00 445 
1.44642651367188e+03 1.01171856689453e+03 5.13145208358765e+00 446 
1.27396984863281e+03 1.00379730224609e+03 4.59653711318970e+00 447 
5.13413818359375e+03 9.75212646484375e+02 4.28182744979858e+00 448 
1.10824377441406e+03 6.05127197265625e+02 4.38215970993042e+00 449 
2.69670288085938e+03 3.10422363281250e+02 3.62778067588806e+00 450 
2.04960205078125e+03 1.95552627563477e+02 4.54316806793213e+00 451 
2.31726049804688e+03 1.89089080810547e+02 4.60467720031738e+00 452 
1.14401586914062e+03 7.85773583984375e+03 7.56320238113403e+00 453 
2.79908618164062e+03 5.81710791015625e+03 6.52401924133301e+00 454 
5.79402148437500e+03 1.63415002441406e+03 6.39577245712280e+00 455 
3.93082861328125e+03 1.33611401367188e+03 6.36189746856689e+00 456 
4.70918505859375e+03 1.32923632812500e+03 6.81222009658813e+00 457 
2.76306335449219e+02 8.15370556640625e+03 3.85401678085327e+00 458 
4.32041894531250e+03 8.14471093750000e+03 4.49590539932251e+00 459 
3.10373095703125e+03 8.09366210937500e+03 4.64404106140137e+00 460 
2.10566137695312e+03 7.73882080078125e+03 4.42834568023682e+00 461 
3.17502783203125e+03 7.31936376953125e+03 6.00473594665527e+00 462 
3.01717016601562e+03 7.22108593750000e+03 5.77009582519531e+00 463 
4.52394238281250e+03 6.88106591796875e+03 4.81382942199707e+00 464 
3.31527319335938e+03 6.43269091796875e+03 4.31735181808472e+00 465 
1.52367980957031e+03 6.31496582031250e+03 4.34814643859863e+00 466 
3.24270800781250e+03 5.95569677734375e+03 4.65552949905396e+00 467 
5.71485107421875e+03 5.65485693359375e+03 3.68983364105225e+00 468 
3.79710791015625e+03 5.24208642578125e+03 4.99978160858154e+00 469 
1.16438037109375e+03 5.08744775390625e+03 4.07667541503906e+00 470 
2.44444189453125e+03 4.94341162109375e+03 5.62572622299194e+00 471 
2.17123193359375e+03 4.68702978515625e+03 5.07794094085693e+00 472 
3.94467700195312e+03 4.73593945312500e+03 3.71211123466492e+00 473 
3.31309375000000e+03 4.13087890625000e+03 3.99139404296875e+00 474 
2.96861621093750e+03 2.97760107421875e+03 4.88753080368042e+00 475 
3.88984790039062e+03 2.83824267578125e+03 4.94968223571777e+00 476 
1.97217858886719e+03 2.82147558593750e+03 3.85134959220886e+00 477 
7.02424804687500e+02 2.23656079101562e+03 4.26292276382446e+00 478 
5.70626074218750e+03 1.34553186035156e+03 4.90148687362671e+00 479 
9.70324035644531e+02 5.83290954589844e+02 5.08288764953613e+00 480 
4.03612622070312e+03 4.51484832763672e+02 5.11806917190552e+00 481 
1.43065039062500e+03 1.15251983642578e+02 5.21529436111450e+00 482 
3.47154565429688e+03 2.48801651000977e+02 1.55592308044434e+01 483 
4.87555957031250e+03 5.96216064453125e+03 1.92057514190674e+01 484 
5.10592382812500e+03 2.02838244628906e+03 2.25018062591553e+01 485 
5.18093896484375e+03 3.36646850585938e+03 2.74778423309326e+01 486 
2.04052490234375e+03 1.18016943359375e+04 5.99394989013672e+01 487 
5.89608740234375e+03 7.36974121093750e+03 3.81233358383179e+00 494 
5.28594970703125e+03 7.31815478515625e+03 3.95441055297852e+00 495 
8.75337036132812e+02 4.93988623046875e+03 3.85877799987793e+00 500 
3.50794824218750e+03 3.46767993164062e+03 3.67402243614197e+00 504 
4.88318164062500e+03 2.14147216796875e+02 4.85342550277710e+00 509 
6.05098095703125e+03 8.08996337890625e+03 3.69465708732605e+00 512 
5.38826318359375e+03 7.21037988281250e+03 3.90620398521423e+00 515 
3.79966979980469e+02 4.77100634765625e+03 7.47224092483521e+00 517 
5.58971728515625e+03 6.04862695312500e+03 8.94163608551025e+00 520 
2.97405468750000e+03 6.04128369140625e+03 4.17637729644775e+00 523 
3.75599462890625e+03 3.28802832031250e+03 6.73457860946655e+00 532 
1.36369430541992e+02 6.18999707031250e+03 6.40186309814453e+00 542 
2.42313305664062e+03 7.86966650390625e+03 4.25134754180908e+00 547 
7.15875854492188e+02 6.96001855468750e+03 5.23409414291382e+00 549 
4.36363281250000e+03 6.90806518554688e+02 1.09714975357056e+01 556 
5.01182128906250e+03 3.04864428710938e+03 9.03254508972168e+00 557 
5.67958984375000e+03 5.53383837890625e+03 1.71376895904541e+01 558 
5.19672119140625e+03 4.39545849609375e+03 3.65410041809082e+00 560 
5.85066992187500e+03 4.07622070312500e+03 3.81344676017761e+00 561 
3.63429321289062e+03 3.39322924804688e+03 5.64061117172241e+00 562 
5.85798974609375e+03 7.98100402832031e+02 4.02645158767700e+00 579 
5.91799951171875e+03 5.80346618652344e+02 3.89375567436218e+00 581 
4.05411865234375e+03 6.84017138671875e+03 3.96827554702759e+00 587 
1.16498425292969e+03 3.44013574218750e+03 6.66513347625732e+00 593 
6.14077783203125e+03 4.78899414062500e+03 4.59426879882812e+00 597 
9.46740539550781e+02 3.54940625000000e+03 3.90861320495605e+00 611 
7.11852645874023e+01 2.70761767578125e+03 6.22542381286621e+00 615 
6.09636181640625e+03 4.47924407958984e+02 4.00004053115845e+00 618 
4.08174389648438e+03 2.44342132568359e+02 4.56295299530029e+00 619 
1.70186816406250e+03 6.59307324218750e+03 3.95475459098816e+00 621 
5.70652441406250e+03 7.76347119140625e+03 3.74777722358704e+00 631 
3.46063012695312e+03 2.43216845703125e+03 4.77637243270874e+00 646 
5.04862402343750e+03 4.37029199218750e+03 7.03072547912598e+00 656 
2.36611474609375e+03 2.92916088867188e+03 5.98163843154907e+00 657 
5.85642578125000e+03 8.13666931152344e+02 7.42404365539551e+00 659 
3.12432250976562e+03 7.85398974609375e+03 4.17159652709961e+00 662 
5.86078417968750e+03 7.55930957031250e+03 4.11052560806274e+00 663 
2.72739038085938e+03 7.22814501953125e+03 5.81279897689819e+00 665 
3.96941223144531e+02 7.04674072265625e+03 4.94679498672485e+00 666 
5.56131396484375e+03 6.28799609375000e+03 3.86300921440125e+00 668 
3.06057373046875e+03 5.55707812500000e+03 4.80870771408081e+00 669 
5.48858276367188e+02 5.08725244140625e+03 4.20079517364502e+00 671 
4.67265087890625e+03 4.36647363281250e+03 4.22745656967163e+00 689 
5.08119433593750e+03 7.55849365234375e+03 4.86763525009155e+00 694 
5.43433105468750e+02 5.08569873046875e+03 6.93228578567505e+00 701 
4.36240478515625e+03 4.70337255859375e+03 1.73703842163086e+01 703 
3.02060815429688e+03 8.02107031250000e+03 4.53719425201416e+00 711 
5.11528320312500e+03 7.46256103515625e+03 4.74638748168945e+00 713 
1.16085351562500e+03 6.30298095703125e+03 5.58272027969360e+00 717 
4.83504638671875e+03 5.58101953125000e+03 5.75810575485229e+00 720 
2.99659619140625e+03 4.23072998046875e+03 4.45632696151733e+00 725 
3.12278417968750e+03 3.44042333984375e+03 4.65363788604736e+00 731 
3.44638891601562e+03 2.36102368164062e+03 4.10376548767090e+00 734 
4.02430224609375e+03 3.18949035644531e+02 4.15792036056519e+00 740 
3.05423291015625e+03 5.02400244140625e+03 6.36784648895264e+00 742 
4.11078906250000e+03 5.80718408203125e+03 4.87304401397705e+00 755 
4.84946630859375e+03 6.22583740234375e+03 6.50599241256714e+00 757 
4.42804589843750e+03 1.93214733886719e+03 8.97754478454590e+00 759 
1.47856860351562e+03 8.02931152343750e+03 7.31516170501709e+00 760 
4.68594287109375e+03 6.16292138671875e+03 9.71629714965820e+00 763 
2.97768237304688e+03 5.24888281250000e+03 5.53166675567627e+00 766 
1.02267877197266e+03 3.56671557617188e+03 4.79502296447754e+00 771 
2.14750878906250e+03 2.87451806640625e+03 5.15001106262207e+00 773 
1.56162292480469e+03 2.37259814453125e+03 4.66023731231689e+00 775 
5.89760058593750e+03 8.22148681640625e+02 6.41045236587524e+00 779 
4.01599316406250e+03 6.69589721679688e+02 4.65922689437866e+00 780 
2.95242602539062e+03 3.79291656494141e+02 4.95485115051270e+00 783 
3.17133984375000e+03 7.15652832031250e+03 3.84275674819946e+00 791 
4.49869238281250e+03 6.29333447265625e+03 3.67718219757080e+00 794 
4.17888085937500e+03 3.20306591796875e+03 4.04857254028320e+00 803 
1.21448425292969e+03 3.09524267578125e+03 5.47207164764404e+00 804 
5.44831445312500e+03 1.71879565429688e+03 3.81921935081482e+00 811 
4.76827050781250e+03 5.43055908203125e+02 3.89294266700745e+00 817 
4.84644165039062e+02 6.20930957031250e+03 5.38419103622437e+00 824 
1.20407066345215e+02 6.20090820312500e+03 5.39757585525513e+00 825 
3.12667626953125e+03 5.57987939453125e+03 5.50589942932129e+00 829 
1.62869287109375e+03 5.00930957031250e+03 4.13241195678711e+00 830 
3.91058227539062e+03 4.94229736328125e+03 4.56628990173340e+00 832 
3.88686279296875e+03 5.00040136718750e+03 3.92863202095032e+00 833 
3.46202880859375e+03 2.44719531250000e+03 5.36315965652466e+00 842 
3.36068750000000e+03 8.86020935058594e+02 3.90724635124207e+00 848 
3.64797558593750e+03 8.07038769531250e+03 4.82269430160522e+00 851 
3.43049041748047e+02 7.47073144531250e+03 4.08980369567871e+00 856 
4.93435333251953e+02 6.18180761718750e+03 5.60721158981323e+00 860 
5.54379492187500e+03 5.11227148437500e+03 7.97930574417114e+00 865 
5.11047943115234e+02 6.12445898437500e+03 5.45517110824585e+00 875 
1.32472949218750e+03 5.53266210937500e+03 4.90109109878540e+00 878 
1.55179992675781e+03 5.44423144531250e+03 4.80882692337036e+00 880 
2.08681835937500e+03 5.39657910156250e+03 3.59879612922668e+00 882 
4.03140429687500e+03 4.13284521484375e+03 4.66656875610352e+00 889 
1.54772924804688e+03 3.46918432617188e+03 4.49124908447266e+00 892 
2.54417651367188e+03 3.40673657226562e+03 4.83441066741943e+00 893 
1.79019946289062e+03 2.92179589843750e+03 4.23091602325439e+00 894 
1.43797399902344e+03 2.06389697265625e+03 5.75413942337036e+00 896 
4.28224365234375e+03 1.47603674316406e+03 4.44947338104248e+00 901 
3.98464843750000e+03 1.05690209960938e+03 7.08020639419556e+00 908 
3.82970800781250e+03 3.59084411621094e+02 6.36417150497437e+00 909 
3.00689233398438e+03 8.05562500000000e+03 4.36124753952026e+00 910 
3.55805444335938e+03 6.96532226562500e+03 4.65810251235962e+00 911 
3.05009643554688e+03 6.23804687500000e+03 4.02438497543335e+00 916 
2.94633251953125e+03 5.24719433593750e+03 6.32298135757446e+00 919 
1.26774365234375e+03 5.10564257812500e+03 3.79295372962952e+00 921 
5.00202734375000e+03 4.07698461914062e+03 3.68099832534790e+00 925 
9.87696228027344e+02 8.03620996093750e+03 5.02285528182983e+00 940 
2.89503515625000e+03 6.28494433593750e+03 4.11080360412598e+00 944 
2.96612182617188e+03 2.46405078125000e+03 5.22760772705078e+00 945 
3.54778100585938e+03 2.99113964843750e+03 6.24795007705688e+00 947 
1.07351696777344e+03 6.60253857421875e+03 4.40360260009766e+00 951 
3.33356860351562e+03 7.27872949218750e+03 3.98455023765564e+00 959 
1.52173962402344e+03 2.81008422851562e+03 4.89529180526733e+00 961 
5.45049095153809e+01 8.01596972656250e+03 3.91330766677856e+00 963 
1.66588854980469e+03 6.96846142578125e+03 6.09803056716919e+00 965 
2.02201049804688e+03 1.02777612304688e+03 4.14926767349243e+00 967 
1.34774194335938e+03 4.96532275390625e+03 4.84407281875610e+00 971 
5.08961181640625e+02 3.46678247070312e+03 4.07381010055542e+00 974 
3.78355010986328e+02 6.54796582031250e+03 5.44836187362671e+00 976 
2.02308703613281e+03 6.09378662109375e+03 6.65674257278442e+00 980 
3.40604522705078e+02 7.78047070312500e+03 5.55940389633179e+00 981 
3.54413549804688e+03 7.00305371093750e+03 4.25140714645386e+00 982 
3.06330859375000e+03 4.98540625000000e+03 5.18712139129639e+00 984 
1.47542126464844e+03 1.29913574218750e+03 4.23560523986816e+00 986 
1.10232055664062e+03 7.80576611328125e+03 7.25380802154541e+00 988 
2.47974926757812e+03 5.39761865234375e+03 5.41963958740234e+00 991 
3.43029833984375e+03 7.29270703125000e+03 6.20571136474609e+00 992 
6.31672302246094e+02 7.33414111328125e+03 3.77893471717834e+00 998 
2.46333422851562e+03 5.25832373046875e+03 5.45458507537842e+00 999 
3.55646386718750e+03 7.39665917968750e+03 4.38136100769043e+00 1003 
2.66644677734375e+03 5.55203906250000e+03 4.73317193984985e+00 1008 
5.93388862609863e+01 3.95834082031250e+03 5.74230337142944e+00 1010 
2.89641894531250e+03 6.31810742187500e+03 5.11955928802490e+00 1013 
1.82489685058594e+03 5.77858447265625e+03 3.82462430000305e+00 1014 
4.78622900390625e+03 8.29727441406250e+03 4.36019325256348e+00 1019 
5.38735122680664e+01 5.34178027343750e+03 5.18046331405640e+00 1020 
4.67920703125000e+03 6.99546240234375e+03 4.03301954269409e+00 1021 
4.23978808593750e+03 6.26571679687500e+03 6.49468231201172e+00 1027 
5.87809814453125e+03 8.39866308593750e+03 3.84628987312317e+00 1030 
4.06302734375000e+03 8.65487011718750e+03 4.06617546081543e+00 1031 
1.70508532714844e+03 8.81493652343750e+03 4.84027194976807e+00 1032 
2.08625439453125e+03 9.10026464843750e+03 5.00356006622314e+00 1033 
2.10345556640625e+03 9.67849023437500e+03 4.18373441696167e+00 1034 
3.68506420898438e+03 9.82774804687500e+03 4.77315521240234e+00 1035 
9.86061035156250e+02 9.94021582031250e+03 5.09776163101196e+00 1036 
7.56291992187500e+02 1.05799062500000e+04 4.21930265426636e+00 1037 
4.79900474548340e+01 1.09213740234375e+04 4.42506074905396e+00 1038 
6.18888671875000e+03 1.14596171875000e+04 4.05812025070190e+00 1039 
1.50436877441406e+03 1.15890253906250e+04 4.60466098785400e+00 1040 
1.32584216308594e+03 1.19347470703125e+04 4.92476272583008e+00 1041 
9.41593383789062e+02 1.24900605468750e+04 4.19249343872070e+00 1042 
1.37916796875000e+03 1.26159218750000e+04 4.21945285797119e+00 1043 
6.01045605468750e+03 5.23469580078125e+03 6.87383842468262e+00 1044 
2.67383276367188e+03 1.24735185546875e+04 6.60286235809326e+00 1045 
3.47944775390625e+03 5.28772705078125e+03 4.17835283279419e+00 1046 
3.69444824218750e+03 5.48229394531250e+03 3.87966775894165e+00 1047 
2.20180126953125e+03 6.16396679687500e+03 4.64415359497070e+00 1048 
2.72272167968750e+03 7.23978906250000e+03 3.68607926368713e+00 1049 
9.50374145507812e+01 8.27671191406250e+03 4.29626131057739e+00 1050 
3.00672094726562e+03 8.60383789062500e+03 4.29662704467773e+00 1051 
5.71575378417969e+02 8.63222558593750e+03 4.27298259735107e+00 1052 
3.40193212890625e+03 8.95562988281250e+03 4.19336223602295e+00 1053 
3.41419042968750e+03 8.98537402343750e+03 4.70708036422729e+00 1054 
5.28416113281250e+03 9.01870605468750e+03 3.82214474678040e+00 1055 
2.04799804687500e+03 9.08351660156250e+03 3.76554703712463e+00 1056 
5.14681005859375e+03 6.23779638671875e+03 2.39425601959229e+01 1057 
4.68873437500000e+03 1.26626210937500e+04 2.38186073303223e+01 1058 
4.42281689453125e+03 9.24211621093750e+03 4.01084566116333e+00 1059 
4.91606347656250e+03 9.23972070312500e+03 5.17909622192383e+00 1060 
1.92707678222656e+03 9.36965429687500e+03 4.43379259109497e+00 1061 
6.90033874511719e+02 1.07359882812500e+04 4.32171058654785e+00 1062 
4.26964843750000e+03 1.07671630859375e+04 3.72237324714661e+00 1063 
1.23580596923828e+02 1.09299199218750e+04 5.09413957595825e+00 1064 
2.63472045898438e+03 1.11953125000000e+04 4.60099315643311e+00 1065 
3.75031738281250e+03 1.15722500000000e+04 4.91182899475098e+00 1066 
2.88138793945312e+03 1.18943691406250e+04 4.91134643554688e+00 1067 
6.64154418945312e+02 1.24794658203125e+04 4.37352514266968e+00 1068 
2.25255761718750e+03 9.13612890625000e+03 6.20055007934570e+00 1069 
5.67723828125000e+03 4.46784667968750e+03 3.68577480316162e+00 1070 
4.84651171875000e+03 5.60571630859375e+03 4.11981821060181e+00 1071 
6.09467138671875e+03 6.62346777343750e+03 4.60295057296753e+00 1072 
4.57180566406250e+03 7.47849902343750e+03 4.95891761779785e+00 1073 
5.46353076171875e+03 8.45148242187500e+03 4.44264698028564e+00 1074 
1.70017382812500e+03 8.48313476562500e+03 5.61827182769775e+00 1075 
3.49191821289062e+03 8.99357714843750e+03 5.06620264053345e+00 1076 
2.94750292968750e+03 9.21716210937500e+03 5.15327215194702e+00 1077 
6.25455761718750e+03 9.86613281250000e+03 3.58958387374878e+00 1078 
4.14580224609375e+03 9.97611230468750e+03 4.87096071243286e+00 1079 
2.59444335937500e+03 1.01456904296875e+04 5.06271457672119e+00 1080 
4.25996337890625e+03 1.02288935546875e+04 5.09058952331543e+00 1081 
5.06096142578125e+03 1.08062001953125e+04 4.24358367919922e+00 1082 
3.53899597167969e+02 1.16257431640625e+04 3.87886977195740e+00 1083 
1.06433898925781e+03 1.17222021484375e+04 4.20474672317505e+00 1084 
1.39561486816406e+03 1.25984365234375e+04 5.16085577011108e+00 1085 
5.96857080078125e+03 1.28602382812500e+04 3.61636590957642e+00 1086 
4.20304003906250e+03 1.15204990234375e+04 6.17554521560669e+00 1087 
5.15982080078125e+03 1.21312099609375e+04 6.30163431167603e+00 1088 
8.41547485351562e+02 1.26370244140625e+04 6.00672149658203e+00 1089 
5.32843896484375e+03 7.73220849609375e+03 8.23810863494873e+00 1090 
2.80308398437500e+03 9.05436523437500e+03 1.02500886917114e+01 1091 
4.33264892578125e+03 9.35974707031250e+03 8.61908054351807e+00 1092 
3.35931005859375e+03 1.09832255859375e+04 1.31093578338623e+01 1093 
6.26869140625000e+03 5.55966455078125e+03 5.49124336242676e+00 1094 
2.06001129150391e+02 6.22810156250000e+03 5.18932485580444e+00 1095 
3.61125463867188e+03 6.86565136718750e+03 4.15847015380859e+00 1096 
2.54709204101562e+03 7.15457568359375e+03 4.25657558441162e+00 1097 
3.18070361328125e+03 7.15492187500000e+03 3.90182638168335e+00 1098 
3.16252709960938e+03 8.81084179687500e+03 5.32705497741699e+00 1099 
3.37237841796875e+03 8.87533203125000e+03 5.58964824676514e+00 1100 
1.36289013671875e+03 9.12805078125000e+03 4.48464918136597e+00 1101 
4.88607031250000e+03 9.98924023437500e+03 5.60964250564575e+00 1102 
7.83938049316406e+02 1.05168056640625e+04 4.65327787399292e+00 1103 
5.10111083984375e+02 1.09802988281250e+04 5.15404462814331e+00 1104 
6.16056787109375e+03 1.12687822265625e+04 3.76199746131897e+00 1105 
4.38551483154297e+02 1.19522080078125e+04 4.92830848693848e+00 1106 
2.34901928710938e+03 1.27487773437500e+04 3.87847709655762e+00 1107 
4.32721923828125e+03 6.03010937500000e+03 3.73835492134094e+00 1109 
2.59266259765625e+03 8.31383105468750e+03 3.78577375411987e+00 1110 
2.11248559570312e+03 8.34603710937500e+03 3.77565765380859e+00 1111 
6.07625830078125e+03 8.40434765625000e+03 5.19707536697388e+00 1112 
3.09541381835938e+02 8.46745605468750e+03 4.22236824035645e+00 1113 
4.46893371582031e+02 9.42718652343750e+03 3.84403228759766e+00 1114 
3.51191528320312e+03 9.85571484375000e+03 3.35497474670410e+00 1115 
6.41186132812500e+03 9.99441015625000e+03 3.59761261940002e+00 1116 
4.52684667968750e+03 1.00755156250000e+04 4.12082719802856e+00 1117 
3.85914526367188e+03 1.03816132812500e+04 5.47557783126831e+00 1118 
5.21360498046875e+03 1.11679003906250e+04 4.23381042480469e+00 1119 
5.08319732666016e+02 1.14900322265625e+04 4.32784795761108e+00 1120 
4.15257843017578e+02 1.21130781250000e+04 3.84539318084717e+00 1121 
2.16642089843750e+03 1.28006425781250e+04 4.95021486282349e+00 1122 
2.08683886718750e+03 1.20009853515625e+04 4.62799072265625e+00 1123 
2.40307226562500e+03 1.23523496093750e+04 4.11961889266968e+00 1124 
4.22906152343750e+03 1.15276308593750e+04 6.31309747695923e+00 1125 
4.26091455078125e+03 1.15295019531250e+04 7.10475635528564e+00 1126 
5.10381298828125e+03 7.87585107421875e+03 4.78320789337158e+00 1127 
2.48482104492188e+03 8.45353222656250e+03 4.05696439743042e+00 1128 
3.42433032226562e+03 8.96727636718750e+03 4.49784660339355e+00 1129 
1.88078527832031e+03 9.54351367187500e+03 4.44656562805176e+00 1130 
4.49277539062500e+03 1.00600986328125e+04 3.61474013328552e+00 1131 
7.76215148925781e+02 1.04766708984375e+04 4.12285757064819e+00 1132 
6.23206835937500e+03 1.04768994140625e+04 3.78391933441162e+00 1133 
2.33252172851562e+03 1.09100458984375e+04 5.71512651443481e+00 1134 
7.86746749877930e+01 1.12208837890625e+04 3.85834360122681e+00 1135 
4.77222656250000e+03 1.16942822265625e+04 3.55583667755127e+00 1136 
4.06996411132812e+03 1.17911162109375e+04 4.60825109481812e+00 1137 
6.18293847656250e+03 1.28385966796875e+04 3.94175958633423e+00 1138 
6.26007958984375e+03 1.28692783203125e+04 3.76521396636963e+00 1139 
2.70291186523438e+03 6.08087304687500e+03 5.93749666213989e+00 1140 
5.62455615234375e+03 7.84352783203125e+03 5.90087795257568e+00 1141 
1.34102587890625e+03 8.61487243652344e+02 4.43041419982910e+00 1142 
5.83283349609375e+03 3.97730346679688e+03 4.36955356597900e+00 1143 
4.39385986328125e+03 1.85621765136719e+03 3.62364888191223e+00 1144 
5.20077734375000e+03 3.41397583007812e+03 3.57908987998962e+00 1145 
1.46235278320312e+03 4.71002929687500e+03 4.32451629638672e+00 1146 
3.39449267578125e+03 8.97729101562500e+03 4.47754621505737e+00 1147 
2.30271264648438e+03 9.01114257812500e+03 5.17275667190552e+00 1148 
2.97171240234375e+03 9.04087402343750e+03 4.97554397583008e+00 1149 
4.41707031250000e+03 9.26377636718750e+03 5.03533411026001e+00 1150 
1.02816625976562e+03 9.86960253906250e+03 4.21732091903687e+00 1151 
8.34666015625000e+02 1.01381494140625e+04 5.02546787261963e+00 1152 
2.42078320312500e+03 1.04717275390625e+04 4.01016759872437e+00 1153 
1.52773513793945e+02 1.09265009765625e+04 4.12510108947754e+00 1154 
3.93271118164062e+03 1.27304257812500e+04 5.07824277877808e+00 1155 
2.18505541992188e+03 1.27932587890625e+04 4.19779968261719e+00 1156 
4.42638916015625e+03 9.71331542968750e+03 6.18389797210693e+00 1157 
1.36715905761719e+03 1.18843935546875e+04 6.25582742691040e+00 1158 
2.50025219726562e+03 2.96949462890625e+02 4.52017498016357e+00 1159 
6.12114648437500e+03 5.98235449218750e+03 4.18500900268555e+00 1160 
1.21012512207031e+03 8.57191406250000e+03 4.17328023910522e+00 1161 
3.50372094726562e+03 9.02055566406250e+03 4.79302072525024e+00 1162 
4.87485937500000e+03 9.34322949218750e+03 5.07875347137451e+00 1163 
6.06937939453125e+03 1.11982470703125e+04 3.77915453910828e+00 1164 
4.84280303955078e+02 1.12292392578125e+04 3.61471104621887e+00 1165 
1.06054711914062e+03 9.79063476562500e+03 6.08685207366943e+00 1166 
2.35257104492188e+03 1.13905908203125e+04 6.84984970092773e+00 1167 
3.90320434570312e+03 1.17351123046875e+04 6.08710050582886e+00 1168 
4.09971972656250e+03 8.48155566406250e+03 9.04298686981201e+00 1169 
1.58212231445312e+03 9.67687597656250e+03 7.95946359634399e+00 1170 
5.65137158203125e+03 1.03114433593750e+04 7.71170568466187e+00 1171 
3.32825561523438e+03 1.11938359375000e+04 9.31300544738770e+00 1172 
1.44609716796875e+03 1.12607695312500e+04 8.00061130523682e+00 1173 
4.90442333984375e+03 1.27313017578125e+04 1.06284856796265e+01 1174 
3.54690722656250e+03 1.17601679687500e+04 7.57737684249878e+00 1175 
3.31525659179688e+03 1.22630712890625e+04 7.62178945541382e+00 1176 
1.58627282714844e+03 1.12706933593750e+04 1.37418222427368e+01 1177 
5.10779882812500e+03 1.23497685546875e+04 1.27843608856201e+01 1178 
5.18477001953125e+03 6.27585449218750e+03 8.94077205657959e+00 1179 
3.86176245117188e+03 5.01327343750000e+03 5.40579271316528e+00 1180 
5.26175830078125e+03 8.58965234375000e+03 3.89808654785156e+00 1181 
4.74654492187500e+03 8.71809472656250e+03 3.97468972206116e+00 1182 
3.75018750000000e+03 9.64424316406250e+03 4.08496046066284e+00 1183 
1.63266760253906e+03 9.67870507812500e+03 3.85325980186462e+00 1184 
3.00171234130859e+02 9.80147949218750e+03 5.29322147369385e+00 1185 
2.89636993408203e+02 9.94120410156250e+03 5.56012821197510e+00 1186 
5.71552001953125e+03 1.01052050781250e+04 5.09030485153198e+00 1187 
5.01106298828125e+03 1.01335947265625e+04 4.18076038360596e+00 1188 
8.49480957031250e+02 1.02711865234375e+04 4.58756542205811e+00 1189 
3.13545312500000e+03 1.05830166015625e+04 5.31888055801392e+00 1190 
4.27895214843750e+03 1.06644335937500e+04 3.95591306686401e+00 1191 
4.80098193359375e+03 1.06667666015625e+04 3.96425485610962e+00 1192 
6.42044580078125e+03 1.07302128906250e+04 3.83714723587036e+00 1193 
5.85385546875000e+03 1.10809453125000e+04 3.53176403045654e+00 1194 
3.33394946289062e+03 1.11783994140625e+04 5.01656198501587e+00 1195 
1.42114575195312e+03 1.15909052734375e+04 4.56183767318726e+00 1196 
2.92386791992188e+03 1.17430927734375e+04 4.96097421646118e+00 1197 
2.97010498046875e+03 1.17421689453125e+04 5.27354097366333e+00 1198 
3.01794897460938e+03 1.17417392578125e+04 5.24517536163330e+00 1199 
1.37557348632812e+03 1.19354218750000e+04 4.21745777130127e+00 1200 
3.24858374023438e+03 1.26832617187500e+04 4.38745498657227e+00 1201 
2.38173022460938e+03 1.27144003906250e+04 3.95264053344727e+00 1202 
1.40233789062500e+03 7.24407910156250e+03 6.42982053756714e+00 1203 
2.80261694335938e+03 1.27114658203125e+04 6.24202394485474e+00 1204 
4.05589086914062e+03 3.85858496093750e+03 3.78040647506714e+00 1205 
1.13477832031250e+03 6.50763427734375e+03 4.96034431457520e+00 1206 
4.06772363281250e+03 7.91874218750000e+03 3.61208271980286e+00 1207 
6.04446972656250e+03 8.24723730468750e+03 3.85510301589966e+00 1208 
7.80127075195312e+02 8.41077148437500e+03 4.27339506149292e+00 1209 
1.41170458984375e+03 8.85772167968750e+03 5.29472732543945e+00 1210 
5.28216943359375e+03 1.24603740234375e+04 2.57168292999268e+01 1211 
4.60464599609375e+03 1.27647832031250e+04 1.64374046325684e+01 1212 
5.29988769531250e+03 1.25396455078125e+04 2.61541366577148e+01 1213 
4.50411474609375e+03 1.24447441406250e+04 3.48665962219238e+01 1214 
1.02868371582031e+03 9.36947167968750e+03 4.32606220245361e+00 1215 
3.14914001464844e+02 9.83195703125000e+03 5.16808176040649e+00 1216 
5.73443457031250e+03 1.00300263671875e+04 4.01772832870483e+00 1217 
5.02817138671875e+03 1.00927919921875e+04 3.89213371276855e+00 1218 
4.74693946838379e+01 1.01502910156250e+04 3.76806449890137e+00 1219 
1.90356250000000e+03 1.01487529296875e+04 4.24830341339111e+00 1220 
2.09960400390625e+03 1.01773964843750e+04 3.58140587806702e+00 1221 
2.53443115234375e+03 1.01770371093750e+04 3.76298952102661e+00 1222 
1.40705212402344e+03 1.04014492187500e+04 5.20632600784302e+00 1223 
4.86104052734375e+03 1.05134267578125e+04 4.22620391845703e+00 1224 
4.60487060546875e+01 1.06467695312500e+04 4.02038764953613e+00 1225 
2.33860937500000e+03 1.13853974609375e+04 5.31450176239014e+00 1226 
3.18000366210938e+03 1.17032685546875e+04 4.01512432098389e+00 1227 
2.23985156250000e+03 1.17641953125000e+04 4.09747266769409e+00 1228 
5.56985644531250e+03 1.21896953125000e+04 3.66057443618774e+00 1229 
2.69802886962891e+02 1.23193115234375e+04 4.04586791992188e+00 1230 
4.05815478515625e+03 1.23171513671875e+04 4.18376255035400e+00 1231 
3.50817504882812e+03 1.25792724609375e+04 4.20797014236450e+00 1232 
1.47473913574219e+03 1.26107646484375e+04 5.69339275360107e+00 1233 
2.40098217773438e+03 1.09652968750000e+04 5.79790496826172e+00 1234 
3.54811010742188e+03 1.25682910156250e+04 6.70559072494507e+00 1235 
3.19807128906250e+03 2.24419250488281e+02 3.64415836334229e+00 1236 
5.05875341796875e+03 4.02299560546875e+03 3.81509566307068e+00 1237 
6.29443359375000e+03 5.25479541015625e+03 5.01180601119995e+00 1238 
3.13326147460938e+03 5.51055468750000e+03 4.26877164840698e+00 1239 
3.80993676757812e+03 5.99418457031250e+03 3.67097043991089e+00 1240 
1.46977075195312e+03 7.31809765625000e+03 3.69130730628967e+00 1241 
3.68111767578125e+03 7.44621728515625e+03 3.66802358627319e+00 1242 
9.12829162597656e+02 8.54655175781250e+03 4.93774557113647e+00 1243 
3.16290649414062e+03 8.86728808593750e+03 4.89509630203247e+00 1244 
9.49648864746094e+02 9.28091699218750e+03 3.93263268470764e+00 1245 
9.25750183105469e+02 9.31148828125000e+03 4.39426136016846e+00 1246 
6.05470654296875e+03 9.40712109375000e+03 5.00997161865234e+00 1247 
1.02397778320312e+03 9.46750000000000e+03 4.55680704116821e+00 1248 
5.09088574218750e+03 9.46808300781250e+03 4.81517076492310e+00 1249 
4.93055957031250e+03 9.63057421875000e+03 5.13204288482666e+00 1250 
5.04891162109375e+03 9.62856835937500e+03 5.30541038513184e+00 1251 
2.01317184448242e+02 9.80771972656250e+03 4.01383209228516e+00 1252 
3.25845458984375e+03 1.05667021484375e+04 4.06709146499634e+00 1253 
3.04230322265625e+03 1.06777138671875e+04 5.15874052047729e+00 1254 
4.41762060546875e+03 1.07747138671875e+04 3.37219524383545e+00 1255 
4.62037646484375e+03 1.08998251953125e+04 4.01355934143066e+00 1256 
4.38729785156250e+03 1.14968007812500e+04 4.29430532455444e+00 1257 
6.47005712890625e+03 1.15282597656250e+04 3.77488183975220e+00 1258 
1.35430187988281e+03 1.15923330078125e+04 4.01065349578857e+00 1259 
1.51526171875000e+03 1.15923271484375e+04 4.93362092971802e+00 1260 
3.19654248046875e+03 1.16905371093750e+04 5.31526756286621e+00 1261 
4.28300439453125e+03 1.18790048828125e+04 4.46107673645020e+00 1262 
2.42910644531250e+03 1.25297089843750e+04 4.87659025192261e+00 1263 
2.61840087890625e+03 1.11881425781250e+04 1.15571041107178e+01 1264 
2.75276538085938e+03 9.46141015625000e+03 8.82791614532471e+00 1265 
1.26300878906250e+03 1.05800429687500e+04 1.12168149948120e+01 1266 
1.54898144531250e+03 1.08881064453125e+04 1.01868648529053e+01 1267 
1.48605102539062e+03 8.00747265625000e+03 9.13935852050781e+00 1268 
3.03640625000000e+03 1.02053710937500e+04 1.19635591506958e+01 1269 
4.79062451171875e+03 5.69793603515625e+03 5.55903005599976e+00 1270 
1.70964721679688e+02 5.82715429687500e+03 3.59071421623230e+00 1271 
5.86524951171875e+03 8.58642968750000e+03 5.44321823120117e+00 1272 
2.11815490722656e+02 9.09866113281250e+03 3.88917946815491e+00 1273 
6.20233837890625e+03 9.29056347656250e+03 3.69916248321533e+00 1274 
1.14337609863281e+03 9.51337792968750e+03 4.22652912139893e+00 1275 
1.33588305664062e+03 9.51134960937500e+03 3.91171598434448e+00 1276 
4.20908154296875e+03 9.67257519531250e+03 5.00607585906982e+00 1277 
1.89341748046875e+03 1.00688623046875e+04 3.94809770584106e+00 1278 
3.97418823242188e+03 1.05995976562500e+04 3.92764592170715e+00 1279 
5.91179394531250e+03 1.06287011718750e+04 4.77734327316284e+00 1280 
4.62590771484375e+03 1.08840771484375e+04 3.99402403831482e+00 1281 
4.29652294921875e+03 1.18269531250000e+04 4.35727548599243e+00 1282 
4.24945996093750e+03 1.18899628906250e+04 3.94081234931946e+00 1283 
4.89434814453125e+01 1.19872402343750e+04 4.70252418518066e+00 1284 
1.77530761718750e+03 1.24948710937500e+04 3.49901247024536e+00 1285 
3.78264404296875e+03 1.25261953125000e+04 3.74849462509155e+00 1286 
6.29625195312500e+03 5.48682128906250e+03 5.54081010818481e+00 1287 
3.66835351562500e+03 5.58030957031250e+03 3.83279752731323e+00 1288 
1.65436621093750e+03 6.96318115234375e+03 3.89502429962158e+00 1289 
3.64088378906250e+03 7.83978857421875e+03 3.77119183540344e+00 1290 
3.83264404296875e+03 8.59621386718750e+03 4.05247592926025e+00 1291 
6.11539111328125e+03 8.88706445312500e+03 5.61609458923340e+00 1292 
3.42615454101562e+03 9.17481445312500e+03 4.10525226593018e+00 1293 
5.05253808593750e+03 1.00749052734375e+04 4.05338811874390e+00 1294 
