ply
format ascii 1.0
element vertex 704
property double x
property double y
property double size
property short id
end_header
3.82532080078125e+03 2.25912719726562e+03 4.46167850494385e+00 68 
2.82999511718750e+03 7.41453857421875e+03 6.08639287948608e+00 69 
4.83899658203125e+02 2.30204248046875e+03 8.96983337402344e+00 70 
1.77564794921875e+03 7.31163330078125e+03 8.83656215667725e+00 71 
4.96615185546875e+03 5.11163085937500e+02 8.65852546691895e+00 72 
2.92869750976562e+03 8.19051660156250e+03 8.42610359191895e+00 73 
5.44002587890625e+03 3.32678540039062e+03 3.90337085723877e+00 74 
2.65549536132812e+03 4.05997778320312e+03 3.85918760299683e+00 75 
7.15188537597656e+02 4.12634082031250e+03 3.65196466445923e+00 76 
6.22321582031250e+03 4.12392187500000e+03 4.12933969497681e+00 77 
4.86317333984375e+03 4.64104394531250e+03 5.03519392013550e+00 78 
5.86584375000000e+03 5.28880761718750e+03 4.30991983413696e+00 79 
5.07718945312500e+03 5.73944091796875e+03 3.74083352088928e+00 80 
5.73561669921875e+03 6.18562207031250e+03 5.65585899353027e+00 81 
1.89628186035156e+03 6.68403369140625e+03 3.95241475105286e+00 82 
2.23919702148438e+03 6.98965429687500e+03 5.43699550628662e+00 83 
1.14153173828125e+03 7.06148876953125e+03 5.40508413314819e+00 84 
5.74902441406250e+03 7.28525195312500e+03 3.88780808448792e+00 85 
4.52321838378906e+02 7.71623535156250e+03 3.99787425994873e+00 86 
4.27727661132812e+02 7.91108398437500e+03 3.91335272789001e+00 87 
3.43322705078125e+03 7.94314648437500e+03 5.67309617996216e+00 88 
3.60895043945312e+03 7.97342578125000e+03 3.62104034423828e+00 89 
2.83580963134766e+02 8.13196875000000e+03 3.86289668083191e+00 90 
3.98519213867188e+03 8.94103149414062e+02 6.22551441192627e+00 91 
3.18714306640625e+03 2.81349731445312e+03 6.41550970077515e+00 92 
1.53111462402344e+03 7.66817871093750e+03 6.27577686309814e+00 93 
5.09323730468750e+03 8.17816259765625e+03 6.24799966812134e+00 94 
1.56926708984375e+03 7.92057556152344e+02 5.96491718292236e+00 95 
3.85865917968750e+03 9.46510498046875e+02 4.32088994979858e+00 96 
2.15222167968750e+03 1.13755139160156e+03 4.35588407516479e+00 97 
2.93492065429688e+03 2.05675244140625e+03 4.08554124832153e+00 98 
4.83056526184082e+01 2.44005175781250e+03 3.92249727249146e+00 99 
2.78731616210938e+03 3.11953808593750e+03 4.52979230880737e+00 100 
5.43819970703125e+03 3.12102319335938e+03 5.57856035232544e+00 101 
5.71282421875000e+03 3.12077197265625e+03 4.42749881744385e+00 102 
4.85238671875000e+03 3.34456103515625e+03 5.10075616836548e+00 103 
5.17133056640625e+03 3.34464160156250e+03 4.13441848754883e+00 104 
1.03736010742188e+03 3.53934082031250e+03 3.71159768104553e+00 105 
1.28373864746094e+03 3.85605834960938e+03 4.81365442276001e+00 106 
3.03205859375000e+03 4.65740380859375e+03 4.12019300460815e+00 107 
6.09414550781250e+03 4.65670117187500e+03 4.41651296615601e+00 108 
3.43858813476562e+03 4.72207666015625e+03 5.04007339477539e+00 109 
6.01530664062500e+03 4.75266992187500e+03 4.03921318054199e+00 110 
8.39341552734375e+02 4.91821875000000e+03 5.75308179855347e+00 111 
4.06050079345703e+02 5.61281298828125e+03 4.52914381027222e+00 112 
4.33592803955078e+02 5.64517968750000e+03 4.23934698104858e+00 113 
4.13402783203125e+03 7.10522558593750e+03 3.64495182037354e+00 114 
4.79109588623047e+02 7.92468066406250e+03 4.01579189300537e+00 115 
2.79480773925781e+02 8.17600732421875e+03 4.36104202270508e+00 116 
8.03868505859375e+03 1.12513544921875e+04 4.16865587234497e+00 117 
1.09798339843750e+02 5.14650451660156e+02 6.44287061691284e+00 118 
1.83932409667969e+03 2.52404199218750e+03 6.46241044998169e+00 119 
3.39149902343750e+03 2.33833511352539e+02 4.82804918289185e+00 120 
1.74752563476562e+03 3.85714813232422e+02 4.01987028121948e+00 121 
1.35180847167969e+03 1.34774658203125e+03 3.92553257942200e+00 122 
4.45604541015625e+03 1.75215942382812e+03 4.38186311721802e+00 123 
2.75623925781250e+03 2.35393286132812e+03 5.09214115142822e+00 124 
1.13345251464844e+03 2.57402612304688e+03 4.31942319869995e+00 125 
5.70822412109375e+03 3.39720019531250e+03 4.12087535858154e+00 126 
1.89417541503906e+02 3.43095434570312e+03 4.55273437500000e+00 127 
3.19793945312500e+03 4.26024902343750e+03 4.12753295898438e+00 128 
9.56782470703125e+02 4.86615673828125e+03 4.49634981155396e+00 129 
3.10511688232422e+02 5.28185400390625e+03 3.95591855049133e+00 130 
3.59473358154297e+02 5.34644335937500e+03 4.03495883941650e+00 131 
7.10856628417969e+02 6.27559326171875e+03 5.82310533523560e+00 132 
1.41143081665039e+02 6.73926171875000e+03 3.68057584762573e+00 133 
4.30688769531250e+03 8.03061523437500e+03 4.12466573715210e+00 134 
9.10586425781250e+02 1.70651660156250e+03 6.51937103271484e+00 135 
1.91105004882812e+03 6.47193994140625e+03 6.72440814971924e+00 136 
5.75215039062500e+03 4.72125549316406e+02 4.44841861724854e+00 137 
2.88533233642578e+02 6.01489501953125e+02 4.74531650543213e+00 138 
8.46400878906250e+02 1.27533532714844e+03 5.43465423583984e+00 139 
5.45108007812500e+03 1.31139990234375e+03 4.33045959472656e+00 140 
3.36555053710938e+03 2.64135571289062e+03 5.33834552764893e+00 141 
5.10610107421875e+03 3.01761181640625e+03 4.83454799652100e+00 142 
4.63322363281250e+03 3.27350830078125e+03 4.48103046417236e+00 143 
5.61260351562500e+03 3.36815722656250e+03 3.93636393547058e+00 144 
4.68165771484375e+03 4.20658251953125e+03 4.10814714431763e+00 145 
6.09306933593750e+03 4.26814746093750e+03 3.93250465393066e+00 146 
3.78567602539062e+03 4.74369091796875e+03 4.41576242446899e+00 147 
3.87395532226562e+03 5.12229394531250e+03 4.20630884170532e+00 148 
4.58185888671875e+03 5.54297900390625e+03 4.12128973007202e+00 149 
4.49009619140625e+03 5.98468359375000e+03 3.88968825340271e+00 150 
3.31715405273438e+03 6.17430664062500e+03 4.75174903869629e+00 151 
5.75345556640625e+03 7.16011181640625e+03 4.61050939559937e+00 152 
5.80637939453125e+03 7.74424804687500e+03 4.53710985183716e+00 153 
4.24850677490234e+02 8.06107226562500e+03 4.06105327606201e+00 154 
2.61083923339844e+02 8.18559765625000e+03 3.87267351150513e+00 155 
1.47879431152344e+03 1.68557934570312e+03 5.02684497833252e+00 156 
2.75511694335938e+03 3.11780200195312e+03 4.56345987319946e+00 157 
2.44644091796875e+03 3.27671459960938e+03 3.60316824913025e+00 158 
2.38617919921875e+03 3.46890234375000e+03 3.70363044738770e+00 159 
5.04709814453125e+03 3.53215747070312e+03 3.75524401664734e+00 160 
4.27088134765625e+03 4.61884130859375e+03 3.71426248550415e+00 161 
5.85999316406250e+03 5.24867333984375e+03 4.89044237136841e+00 162 
2.85508862304688e+03 7.34224560546875e+03 4.55458736419678e+00 163 
5.61182470703125e+03 7.69810205078125e+03 3.87523436546326e+00 164 
3.73665429687500e+03 7.79396582031250e+03 5.75424051284790e+00 165 
7.44466430664062e+02 8.32896972656250e+03 4.65934085845947e+00 166 
5.04691259765625e+03 3.59566223144531e+02 6.35909938812256e+00 167 
3.27051025390625e+03 5.47388134765625e+03 6.14054298400879e+00 168 
1.13278588867188e+03 7.42632080078125e+03 6.35608625411987e+00 169 
2.79696752929688e+03 1.24511322021484e+02 4.57414054870605e+00 170 
3.96836279296875e+03 7.86265197753906e+02 4.27129220962524e+00 171 
2.18930224609375e+03 8.40897521972656e+02 3.95003700256348e+00 172 
6.02072509765625e+03 1.38548986816406e+03 4.24034976959229e+00 173 
1.64821868896484e+02 2.58895190429688e+03 4.20005702972412e+00 174 
1.28702978515625e+03 3.28666113281250e+03 3.55281710624695e+00 175 
4.91474609375000e+03 3.35139746093750e+03 4.60865402221680e+00 176 
1.95740524291992e+02 3.41299658203125e+03 4.19417667388916e+00 177 
4.07264990234375e+03 4.40968798828125e+03 5.11027860641479e+00 178 
7.68358337402344e+02 5.46037548828125e+03 3.77480626106262e+00 179 
6.00085253906250e+03 5.58360937500000e+03 3.65960192680359e+00 180 
6.68574707031250e+02 5.74516796875000e+03 3.66927695274353e+00 181 
6.35122949218750e+03 6.15968750000000e+03 4.59865617752075e+00 182 
1.33970190429688e+03 6.63711767578125e+03 3.80187082290649e+00 183 
6.00673339843750e+03 7.01097753906250e+03 3.85346746444702e+00 184 
6.02022460937500e+02 7.89583251953125e+03 3.99164938926697e+00 185 
4.42276464843750e+03 8.14552441406250e+03 4.74546146392822e+00 186 
4.45110205078125e+03 8.17651074218750e+03 4.66497087478638e+00 187 
2.50080535888672e+02 8.20976074218750e+03 4.04922389984131e+00 188 
7.61225708007812e+02 8.30450488281250e+03 4.58877563476562e+00 189 
1.59148181152344e+03 5.64950097656250e+03 2.44380874633789e+01 190 
1.42208068847656e+03 5.42920996093750e+03 2.59533176422119e+01 191 
1.74350915527344e+03 4.37804394531250e+03 1.85359973907471e+01 192 
4.31351013183594e+02 6.48916992187500e+03 2.08051357269287e+01 193 
2.60659301757812e+03 4.82194287109375e+03 3.50239830017090e+01 194 
2.65479467773438e+03 2.16712939453125e+03 8.41095581054688e+01 195 
1.09422302246094e+03 7.59888732910156e+02 6.71773624420166e+00 196 
1.73082238769531e+03 2.92474877929688e+03 6.66739797592163e+00 197 
2.58480419921875e+03 2.92408251953125e+03 6.60264062881470e+00 198 
5.70231982421875e+03 3.10789062500000e+03 6.21137237548828e+00 199 
3.91084863281250e+03 3.38904321289062e+03 5.79760599136353e+00 200 
1.90279321289062e+03 6.44931640625000e+03 6.51143741607666e+00 201 
3.55115405273438e+03 7.87946228027344e+02 3.54304265975952e+00 202 
6.08646875000000e+03 8.44598266601562e+02 4.06168746948242e+00 203 
1.59529382324219e+03 9.11265991210938e+02 3.82949566841125e+00 204 
1.67869445800781e+03 1.56134228515625e+03 4.83618831634521e+00 205 
3.94228247070312e+03 1.84953552246094e+03 4.48256492614746e+00 206 
2.03169958496094e+03 2.07461035156250e+03 4.37995290756226e+00 207 
6.00665771484375e+03 2.13657739257812e+03 5.59655427932739e+00 208 
2.57929125976562e+03 2.87451342773438e+03 5.44056081771851e+00 209 
6.17973632812500e+03 3.60850805664062e+03 3.75475120544434e+00 210 
5.64926513671875e+03 5.07510302734375e+03 5.07438135147095e+00 211 
2.55752563476562e+03 5.20009814453125e+03 4.05559730529785e+00 212 
2.05470800781250e+03 5.26424267578125e+03 3.92400503158569e+00 213 
1.91271923828125e+03 5.29753759765625e+03 3.89540338516235e+00 214 
2.12896142578125e+03 5.45627929687500e+03 3.91261243820190e+00 215 
4.90402246093750e+03 5.78702636718750e+03 3.85455894470215e+00 216 
9.66115051269531e+02 6.10512304687500e+03 3.55866765975952e+00 217 
3.33245898437500e+03 6.17052832031250e+03 4.43868637084961e+00 218 
5.00093408203125e+03 6.17004492187500e+03 5.20873928070068e+00 219 
4.37243994140625e+03 6.49765136718750e+03 4.09485340118408e+00 220 
9.85188049316406e+02 6.69082568359375e+03 4.19220733642578e+00 221 
4.50587158203125e+03 6.81368359375000e+03 4.26075983047485e+00 222 
5.16776074218750e+03 6.98132373046875e+03 4.42447757720947e+00 223 
1.14637487792969e+03 7.40331542968750e+03 5.22980833053589e+00 224 
5.75120996093750e+03 7.69188964843750e+03 4.38571548461914e+00 225 
3.62864160156250e+03 7.82329345703125e+03 3.96602201461792e+00 226 
4.34316210937500e+03 8.04577832031250e+03 4.91150569915771e+00 227 
5.75594580078125e+03 8.07851416015625e+03 4.36902475357056e+00 228 
5.06550878906250e+03 8.20081445312500e+03 4.24035930633545e+00 229 
5.86036560058594e+02 1.47730117797852e+02 6.90419197082520e+00 230 
1.07127368164062e+03 7.51112548828125e+02 5.92381715774536e+00 231 
6.13430859375000e+03 1.94567700195312e+03 6.69867563247681e+00 232 
1.80663171386719e+03 2.69639526367188e+03 6.57052183151245e+00 233 
1.74531958007812e+03 2.88101586914062e+03 6.60246562957764e+00 234 
5.14495263671875e+03 7.03665283203125e+03 6.01778411865234e+00 235 
2.92203198242188e+03 7.42292529296875e+03 6.60198307037354e+00 236 
4.34470605468750e+03 1.19309989929199e+02 4.11755371093750e+00 237 
3.70930761718750e+03 4.38593780517578e+02 4.05740213394165e+00 238 
3.45589526367188e+03 5.02937286376953e+02 3.67004013061523e+00 239 
3.99912500000000e+03 5.34508972167969e+02 4.33704090118408e+00 240 
2.50794897460938e+03 6.51412658691406e+02 4.26123046875000e+00 241 
5.33227490234375e+03 9.80273620605469e+02 3.90733265876770e+00 242 
2.59615936279297e+02 1.28251379394531e+03 4.68179035186768e+00 243 
1.93605603027344e+03 6.47866650390625e+03 8.98104476928711e+00 244 
5.39144653320312e+02 3.59075439453125e+03 9.88578891754150e+00 245 
4.52753417968750e+03 8.06573632812500e+03 7.97506904602051e+00 246 
2.22142382812500e+03 1.96904211425781e+03 1.28631162643433e+01 247 
6.09706445312500e+03 3.66695281982422e+02 6.26303052902222e+00 248 
6.75735595703125e+02 1.84450964355469e+03 6.09673023223877e+00 249 
4.50958886718750e+03 3.18874780273438e+03 7.02714490890503e+00 250 
3.92030590820312e+03 3.31742602539062e+03 5.87501525878906e+00 251 
1.87123083496094e+03 4.75443017578125e+03 6.11827611923218e+00 252 
1.39158776855469e+03 2.68762115478516e+02 5.21313142776489e+00 253 
9.12013427734375e+02 5.96821777343750e+02 3.88535261154175e+00 254 
4.43966735839844e+02 6.88511352539062e+02 5.18804454803467e+00 255 
1.47074853515625e+03 1.01537945556641e+03 4.61763334274292e+00 256 
1.13744726562500e+03 1.10843896484375e+03 4.72142934799194e+00 257 
9.31943481445312e+02 1.64254577636719e+03 4.21588230133057e+00 258 
3.92291235351562e+03 1.85608837890625e+03 4.90717267990112e+00 259 
7.30744445800781e+02 2.01302819824219e+03 3.66258692741394e+00 260 
4.21280456542969e+02 2.42844531250000e+03 4.21543550491333e+00 261 
5.69692749023438e+02 2.81565014648438e+03 5.16203308105469e+00 262 
5.20600097656250e+03 3.20175024414062e+03 3.83428788185120e+00 263 
4.12712939453125e+03 3.65106640625000e+03 5.13103151321411e+00 264 
1.28793029785156e+03 3.84331933593750e+03 5.51314973831177e+00 265 
3.24223852539062e+03 3.96774853515625e+03 4.11786127090454e+00 266 
3.35107202148438e+03 4.00353027343750e+03 4.45023107528687e+00 267 
3.37279956054688e+03 4.03488476562500e+03 4.41432476043701e+00 268 
2.68908300781250e+03 4.06424316406250e+03 4.31613826751709e+00 269 
4.08143310546875e+03 4.09731005859375e+03 5.65295076370239e+00 270 
4.47658154296875e+03 4.38072363281250e+03 3.98025131225586e+00 271 
7.70015258789062e+02 4.60635107421875e+03 4.30323362350464e+00 272 
2.61768310546875e+02 5.19810937500000e+03 5.21725606918335e+00 273 
4.76477783203125e+03 5.35811035156250e+03 5.02579545974731e+00 274 
1.11296272277832e+02 5.65383300781250e+03 3.79946398735046e+00 275 
5.19834777832031e+02 5.78017480468750e+03 5.25006103515625e+00 276 
4.42501464843750e+03 5.84344677734375e+03 5.49249935150146e+00 277 
6.33526367187500e+03 6.00548242187500e+03 3.85982990264893e+00 278 
5.38926806640625e+03 6.47218847656250e+03 4.63300132751465e+00 279 
1.41954357910156e+03 6.82649804687500e+03 5.40253639221191e+00 280 
5.89082714843750e+03 7.08080761718750e+03 4.25424671173096e+00 281 
2.40844042968750e+03 7.24210156250000e+03 5.49748802185059e+00 282 
4.29908984375000e+03 7.24083007812500e+03 3.84213590621948e+00 283 
4.33448095703125e+03 7.88248144531250e+03 3.91974806785583e+00 284 
4.40745788574219e+02 7.94504492187500e+03 4.03921794891357e+00 285 
6.08026306152344e+02 8.44172460937500e+03 3.97642254829407e+00 286 
4.19376269531250e+03 9.93874694824219e+02 5.75417804718018e+00 287 
4.59103906250000e+03 1.20801318359375e+03 4.81294012069702e+00 288 
5.24100927734375e+03 1.33594543457031e+03 4.20740652084351e+00 289 
1.09627563476562e+02 1.65439514160156e+03 5.12031412124634e+00 290 
5.07698876953125e+03 1.80921887207031e+03 4.50505924224854e+00 291 
3.93523608398438e+03 1.87201916503906e+03 4.01763200759888e+00 292 
3.71210644531250e+03 1.90610534667969e+03 5.26835441589355e+00 293 
4.90741015625000e+03 2.13332861328125e+03 4.01010608673096e+00 294 
4.90767187500000e+03 2.58015869140625e+03 4.98741531372070e+00 295 
5.71848535156250e+03 6.00406347656250e+03 5.78088617324829e+00 296 
1.49661401367188e+03 6.30315478515625e+03 1.21494417190552e+01 297 
3.46344067382812e+03 6.68547900390625e+03 1.07842760086060e+01 298 
3.56650805664062e+03 6.68520605468750e+03 8.96493148803711e+00 299 
6.18668457031250e+02 3.31466796875000e+03 1.03727493286133e+01 300 
1.72465881347656e+03 3.89512915039062e+03 8.06497383117676e+00 301 
4.53730615234375e+03 8.02675439453125e+03 8.39626598358154e+00 302 
1.13588989257812e+03 2.14753662109375e+03 9.17644977569580e+00 303 
4.86281188964844e+02 2.27948706054688e+03 9.24072647094727e+00 304 
1.26297680664062e+03 4.10663916015625e+03 7.48666095733643e+00 305 
3.29409082031250e+03 5.45882275390625e+03 8.50532436370850e+00 306 
3.67864654541016e+02 6.41868847656250e+03 1.24311265945435e+01 307 
5.66127929687500e+03 6.01843212890625e+03 7.40328836441040e+00 308 
2.24093652343750e+03 7.17245410156250e+03 8.46746253967285e+00 309 
7.53034423828125e+02 8.31646289062500e+03 7.23469352722168e+00 310 
3.36944921875000e+03 3.99760156250000e+03 4.54644298553467e+00 311 
3.34389355468750e+03 4.12397998046875e+03 4.06307411193848e+00 312 
4.26691650390625e+03 4.60972070312500e+03 3.90440297126770e+00 313 
4.85193798828125e+03 4.64041357421875e+03 3.73147869110107e+00 314 
3.75954370117188e+03 4.88642822265625e+03 3.94957613945007e+00 315 
5.81763549804688e+02 6.12122412109375e+03 4.16705894470215e+00 316 
3.50823583984375e+03 6.24765771484375e+03 4.09203720092773e+00 317 
5.48163818359375e+03 6.24880859375000e+03 3.73132872581482e+00 318 
4.16471484375000e+03 6.83340917968750e+03 4.03396224975586e+00 319 
5.08271484375000e+03 6.86478710937500e+03 3.92345595359802e+00 320 
4.85938525390625e+03 7.21946679687500e+03 4.83736371994019e+00 321 
3.30241357421875e+03 7.28466748046875e+03 4.46550655364990e+00 322 
5.75881494140625e+03 7.28443847656250e+03 4.00144338607788e+00 323 
4.26072265625000e+03 7.97286035156250e+03 3.87713861465454e+00 324 
1.73854809570312e+03 8.10013183593750e+03 4.19934082031250e+00 325 
4.84127001953125e+03 8.19524902343750e+03 3.87936782836914e+00 326 
3.89651806640625e+03 3.31422119140625e+03 5.81091976165771e+00 327 
3.88407373046875e+03 3.40876416015625e+03 6.45504140853882e+00 328 
1.25866406250000e+03 3.52908813476562e+03 5.93521738052368e+00 329 
4.52759423828125e+03 6.33154980468750e+03 6.93491363525391e+00 330 
5.38088134765625e+03 6.49308740234375e+03 5.98536634445190e+00 331 
5.62778613281250e+03 6.60783642578125e+03 6.62713432312012e+00 332 
1.49996472167969e+03 8.14673876953125e+03 6.81838512420654e+00 333 
1.16040930175781e+03 3.58189453125000e+02 4.06921243667603e+00 334 
3.10143457031250e+03 3.56968933105469e+02 4.36492013931274e+00 335 
4.43349218750000e+03 5.48954040527344e+02 3.81359982490540e+00 336 
8.14211730957031e+02 5.79636474609375e+02 5.30493927001953e+00 337 
4.55732574462891e+02 7.07748046875000e+02 3.85060381889343e+00 338 
3.43310595703125e+03 1.10610668945312e+03 5.21638393402100e+00 339 
2.53117675781250e+03 1.49685693359375e+03 4.24361562728882e+00 340 
4.08022021484375e+03 1.89516223144531e+03 4.00465869903564e+00 341 
4.05753344726562e+03 1.96138720703125e+03 4.14909076690674e+00 342 
6.10539794921875e+03 2.05694042968750e+03 5.57099437713623e+00 343 
4.35091796875000e+03 2.25018554687500e+03 5.24141836166382e+00 344 
3.44505664062500e+03 2.50578857421875e+03 5.10236740112305e+00 345 
1.22573632812500e+03 3.21720996093750e+03 4.75596475601196e+00 346 
5.72461962890625e+03 3.37771606445312e+03 4.63206052780151e+00 347 
1.56888488769531e+03 3.92084985351562e+03 4.56682443618774e+00 348 
1.75840429687500e+03 4.04933300781250e+03 5.38142871856689e+00 349 
3.34336059570312e+03 4.20925976562500e+03 4.02443408966064e+00 350 
3.68857202148438e+03 4.56042187500000e+03 5.17560863494873e+00 351 
4.27309716796875e+03 4.56260986328125e+03 4.84655761718750e+00 352 
3.79728808593750e+03 5.05012353515625e+03 4.18235921859741e+00 353 
4.07415234375000e+03 6.06288623046875e+03 5.17460346221924e+00 354 
6.08680029296875e+03 7.20077880859375e+03 4.75337457656860e+00 355 
4.91311816406250e+03 7.29910351562500e+03 4.37149810791016e+00 356 
5.31119921875000e+03 7.46089013671875e+03 5.21501827239990e+00 357 
6.18084375000000e+03 7.51116601562500e+03 4.17825412750244e+00 358 
5.68405468750000e+03 7.66752148437500e+03 3.95428061485291e+00 359 
2.50718765258789e+02 8.23717675781250e+03 4.14933013916016e+00 360 
1.19248046875000e+03 8.37150000000000e+03 4.21357011795044e+00 361 
5.69315551757812e+02 2.00640930175781e+02 6.61607074737549e+00 362 
4.72064514160156e+02 2.31923681640625e+03 5.76418113708496e+00 363 
4.92967724609375e+03 2.44037597656250e+03 7.01021575927734e+00 364 
4.90967041015625e+03 3.29591040039062e+03 5.58891963958740e+00 365 
1.07440478515625e+03 3.76928588867188e+03 6.09881544113159e+00 366 
1.05465759277344e+03 4.47654150390625e+03 6.14846515655518e+00 367 
1.84374218750000e+03 4.83597119140625e+03 6.02955579757690e+00 368 
3.53318823242188e+03 8.52239501953125e+02 5.36218547821045e+00 369 
5.69231347656250e+03 1.12952734375000e+03 4.37263631820679e+00 370 
2.46203399658203e+02 1.25949902343750e+03 5.04562377929688e+00 371 
4.10999853515625e+03 1.28953002929688e+03 4.57681608200073e+00 372 
4.08489819335938e+03 1.38280004882812e+03 4.67450141906738e+00 373 
5.14773291015625e+03 2.00601196289062e+03 5.72002649307251e+00 374 
5.11199316406250e+03 2.03262890625000e+03 4.55861902236938e+00 375 
2.55372631835938e+03 3.01293530273438e+03 5.69084310531616e+00 376 
5.81475439453125e+03 3.10846215820312e+03 4.93274927139282e+00 377 
5.70804052734375e+03 3.49424365234375e+03 3.95111083984375e+00 378 
5.70184912109375e+03 3.52487231445312e+03 3.62967610359192e+00 379 
6.00482031250000e+03 4.19655419921875e+03 4.08595705032349e+00 380 
4.07769042968750e+03 4.42226464843750e+03 4.51042127609253e+00 381 
5.05710693359375e+03 4.42252001953125e+03 3.81996774673462e+00 382 
4.19233984375000e+03 4.55059960937500e+03 5.26525831222534e+00 383 
1.99143591308594e+03 5.05954199218750e+03 4.11989593505859e+00 384 
4.54327490234375e+03 5.37745166015625e+03 5.14019870758057e+00 385 
2.30301000976562e+03 5.47333203125000e+03 3.73959159851074e+00 386 
4.29994335937500e+03 5.72456591796875e+03 4.49428796768188e+00 387 
6.36411914062500e+03 6.51522070312500e+03 5.08328056335449e+00 388 
3.48264672851562e+03 6.61125878906250e+03 4.50410604476929e+00 389 
2.66636749267578e+02 6.73711279296875e+03 4.58215999603271e+00 390 
1.68271105957031e+03 6.89701708984375e+03 5.21494817733765e+00 391 
2.33452148437500e+03 7.15242285156250e+03 5.56682395935059e+00 392 
3.04826049804688e+03 7.32098242187500e+03 5.39148473739624e+00 393 
5.06539501953125e+03 7.67582373046875e+03 4.21620035171509e+00 394 
1.71756591796875e+02 2.46168579101562e+03 5.69157361984253e+00 395 
1.78201647949219e+03 2.77058374023438e+03 6.60594272613525e+00 396 
3.91717089843750e+03 3.34071923828125e+03 6.04772472381592e+00 397 
3.44612548828125e+03 6.72346826171875e+03 7.11671733856201e+00 398 
2.44675024414062e+03 8.04529199218750e+03 6.42344808578491e+00 399 
1.48524609375000e+03 8.16992529296875e+03 6.98623514175415e+00 400 
1.48484643554688e+03 5.91298789978027e+01 4.98483228683472e+00 401 
5.73157128906250e+03 8.88682174682617e+01 4.10938882827759e+00 402 
4.01003515625000e+03 5.38016845703125e+02 3.99533390998840e+00 403 
5.51613232421875e+03 6.93268493652344e+02 4.36525774002075e+00 404 
5.46203417968750e+03 1.04816174316406e+03 3.89458584785461e+00 405 
2.63859521484375e+03 1.07991333007812e+03 5.39388370513916e+00 406 
5.77240234375000e+03 1.11579431152344e+03 5.00848913192749e+00 407 
2.40873779296875e+02 1.27407922363281e+03 5.20295906066895e+00 408 
7.24274230957031e+02 1.52274267578125e+03 3.61845254898071e+00 409 
2.97545605468750e+03 2.35050732421875e+03 3.93033194541931e+00 410 
2.93040673828125e+03 2.41464331054688e+03 4.09789323806763e+00 411 
3.16379125976562e+03 3.33834033203125e+03 4.29828977584839e+00 412 
5.43122070312500e+03 3.49938500976562e+03 3.91069579124451e+00 413 
5.63980859375000e+03 4.23774121093750e+03 4.93252801895142e+00 414 
2.90062500000000e+03 4.30021142578125e+03 4.25043630599976e+00 415 
4.97571830749512e+01 4.83616162109375e+03 4.20973014831543e+00 416 
1.99377105712891e+02 5.24497900390625e+03 5.32550764083862e+00 417 
2.15004785156250e+03 5.35043750000000e+03 3.83853507041931e+00 418 
2.21009326171875e+03 5.35049951171875e+03 3.78386640548706e+00 419 
2.46082543945312e+03 5.47941259765625e+03 5.07153606414795e+00 420 
3.55108325195312e+03 6.04740722656250e+03 4.07990217208862e+00 421 
1.47716821289062e+03 6.17461376953125e+03 4.67638874053955e+00 422 
3.06911987304688e+02 6.56329541015625e+03 5.10300064086914e+00 423 
1.44639221191406e+03 6.81066162109375e+03 4.18610286712646e+00 424 
1.94481826782227e+02 6.93909179687500e+03 4.05396175384521e+00 425 
4.08445678710938e+03 6.96810986328125e+03 3.79020166397095e+00 426 
1.65561486816406e+03 7.03262158203125e+03 3.80242061614990e+00 427 
3.13893530273438e+03 7.12872607421875e+03 3.66692590713501e+00 428 
4.95354003906250e+03 7.37656542968750e+03 3.91079545021057e+00 429 
5.50581982421875e+03 7.37918212890625e+03 4.31999969482422e+00 430 
1.73789038085938e+03 7.74603076171875e+03 4.00718927383423e+00 431 
4.19271923828125e+03 8.11953759765625e+03 4.82806634902954e+00 432 
1.24499560546875e+03 8.35288378906250e+03 3.84870934486389e+00 433 
1.74301843261719e+03 1.58275268554688e+03 4.86349344253540e+00 434 
5.43581298828125e+02 1.78066015625000e+03 3.70644712448120e+00 435 
3.41413354492188e+03 2.56517578125000e+03 3.95811653137207e+00 436 
3.84542895507812e+03 3.30845581054688e+03 5.69472646713257e+00 437 
3.20562280273438e+03 4.07850439453125e+03 4.24511098861694e+00 438 
4.63381933593750e+03 4.90591894531250e+03 4.11485147476196e+00 439 
3.00685180664062e+03 6.07904687500000e+03 4.00363445281982e+00 440 
2.24757858276367e+02 7.02504394531250e+03 4.08927154541016e+00 441 
8.82354858398438e+02 7.08607373046875e+03 5.59525585174561e+00 442 
6.39989941406250e+03 7.15046679687500e+03 4.58847904205322e+00 443 
5.13621240234375e+03 7.24624121093750e+03 4.29558706283569e+00 444 
3.26508813476562e+03 7.27638330078125e+03 3.80275797843933e+00 445 
5.01700048828125e+03 7.27654931640625e+03 4.87435102462769e+00 446 
5.18990332031250e+03 7.27692675781250e+03 4.52246189117432e+00 447 
1.33811926269531e+03 7.46966552734375e+03 4.42300987243652e+00 448 
5.35029394531250e+03 7.63308544921875e+03 4.39717054367065e+00 449 
3.76487109375000e+03 7.97920556640625e+03 3.77614808082581e+00 450 
4.43760839843750e+03 8.09754638671875e+03 4.45750093460083e+00 451 
4.17986474609375e+03 8.13064794921875e+03 4.88895893096924e+00 452 
5.00800146484375e+03 4.20168975830078e+02 7.04966878890991e+00 453 
3.41817065429688e+03 2.48569287109375e+03 6.12725305557251e+00 454 
6.16436340332031e+02 6.78269335937500e+03 6.21787309646606e+00 455 
2.47013403320312e+03 6.97764013671875e+03 6.03976488113403e+00 456 
1.70804699707031e+03 7.03963427734375e+03 6.69232606887817e+00 457 
5.86785107421875e+03 9.44356307983398e+01 4.01525831222534e+00 458 
1.80952233886719e+03 2.55183853149414e+02 3.90982341766357e+00 459 
3.02660424804688e+03 2.53537597656250e+02 4.63326025009155e+00 460 
4.02530541992188e+03 5.41715454101562e+02 4.11408329010010e+00 461 
3.01225659179688e+03 1.06240405273438e+03 5.63902282714844e+00 462 
3.17622900390625e+03 1.15622229003906e+03 5.74222707748413e+00 463 
1.69257873535156e+03 1.56627600097656e+03 4.92370748519897e+00 464 
2.91323144531250e+03 1.95364868164062e+03 4.31630468368530e+00 465 
4.70487646484375e+03 1.98647851562500e+03 4.41980218887329e+00 466 
2.96968579101562e+03 2.36896777343750e+03 4.29863691329956e+00 467 
5.61451904296875e+02 2.83756469726562e+03 3.62206864356995e+00 468 
2.48234912109375e+03 3.15776464843750e+03 4.84495353698730e+00 469 
5.11648437500000e+03 3.19043920898438e+03 4.32850885391235e+00 470 
3.83705053710938e+03 3.38070678710938e+03 5.30655527114868e+00 471 
4.12785107421875e+03 3.63569799804688e+03 5.06596899032593e+00 472 
2.35887231445312e+03 3.66865063476562e+03 3.63458371162415e+00 473 
2.97614941406250e+03 4.18304785156250e+03 4.21835803985596e+00 474 
3.37897949218750e+03 5.33158203125000e+03 4.92946386337280e+00 475 
2.45589819335938e+03 5.49390039062500e+03 5.15977430343628e+00 476 
4.41409179687500e+03 5.49437207031250e+03 3.96816253662109e+00 477 
5.67604785156250e+03 5.97059472656250e+03 4.20502281188965e+00 478 
7.18431396484375e+02 7.06962597656250e+03 4.70491170883179e+00 479 
5.48615087890625e+03 7.64262255859375e+03 5.43224382400513e+00 480 
2.44408984375000e+03 7.93074902343750e+03 5.00935792922974e+00 481 
5.07611035156250e+03 8.17793701171875e+03 4.83147335052490e+00 482 
3.03043432617188e+03 8.13219628906250e+03 1.47206230163574e+01 483 
1.34977416992188e+03 2.43935107421875e+03 2.06657695770264e+01 484 
1.30945764160156e+03 6.41244287109375e+03 2.16750698089600e+01 485 
1.18676892089844e+03 5.08916796875000e+03 2.72799758911133e+01 486 
3.28958740234375e+03 1.27057246093750e+04 2.68884334564209e+01 487 
8.44786718750000e+03 1.36637792968750e+03 6.21521854400635e+00 488 
2.23511035156250e+03 1.96978927612305e+02 5.66610097885132e+00 489 
7.69097314453125e+03 3.03013214111328e+02 4.45191144943237e+00 490 
8.15068310546875e+03 5.19557495117188e+02 4.12215518951416e+00 491 
8.43189453125000e+03 5.22330627441406e+02 3.97725367546082e+00 492 
3.97338403320312e+03 7.70423645019531e+02 4.25510406494141e+00 493 
2.81866241455078e+02 1.10330725097656e+03 3.57316398620605e+00 494 
8.94537353515625e+02 1.13303906250000e+03 3.87132406234741e+00 495 
6.65711962890625e+03 1.29533520507812e+03 5.00485372543335e+00 496 
8.52037792968750e+03 1.35801269531250e+03 4.44693422317505e+00 497 
7.28639941406250e+03 1.60482189941406e+03 5.14441728591919e+00 498 
7.28334912109375e+03 1.66249438476562e+03 3.98015880584717e+00 499 
5.41075634765625e+03 3.32243310546875e+03 3.62894535064697e+00 500 
3.65238720703125e+03 3.35262133789062e+03 3.63670635223389e+00 501 
8.00946240234375e+03 4.30891796875000e+03 4.20539712905884e+00 502 
5.84317529296875e+03 4.75821630859375e+03 3.71496438980103e+00 503 
2.84711645507812e+03 4.91046435546875e+03 3.93836116790771e+00 504 
7.91535888671875e+03 7.43512304687500e+03 4.51701927185059e+00 505 
6.90846240234375e+03 1.49983917236328e+02 6.94447183609009e+00 506 
4.34889208984375e+03 3.16846899414062e+03 6.63825559616089e+00 507 
6.72900732421875e+03 4.99678613281250e+03 7.03719139099121e+00 508 
1.57935327148438e+03 8.15307177734375e+03 6.04003524780273e+00 509 
7.38499414062500e+03 3.09401458740234e+02 5.17221832275391e+00 510 
8.02272900390625e+03 3.43183990478516e+02 4.29834365844727e+00 511 
1.25231323242188e+02 4.37461456298828e+02 3.97696757316589e+00 512 
8.43112207031250e+03 5.32153564453125e+02 4.36021089553833e+00 513 
5.74043261718750e+03 8.01340454101562e+02 3.75285363197327e+00 514 
8.00477478027344e+02 1.24883935546875e+03 3.87204718589783e+00 515 
1.31971752929688e+03 2.76211328125000e+03 8.22618389129639e+00 516 
5.91605175781250e+03 3.47083959960938e+03 8.01005649566650e+00 517 
1.72174279785156e+03 3.93298925781250e+03 1.10719289779663e+01 518 
3.54627124023438e+03 6.69347656250000e+03 7.34643554687500e+00 519 
6.69363464355469e+02 2.44147729492188e+03 8.82363891601562e+00 520 
1.34717871093750e+03 2.77332470703125e+03 8.06353759765625e+00 521 
8.49384960937500e+03 4.25400909423828e+02 6.09573698043823e+00 522 
3.23097143554688e+03 2.27537744140625e+03 6.01605367660522e+00 523 
7.92139062500000e+03 9.52054992675781e+02 4.71109437942505e+00 524 
6.60013183593750e+03 1.94981005859375e+03 4.15358257293701e+00 525 
7.75916406250000e+03 2.04640307617188e+03 3.86078667640686e+00 526 
6.98525878906250e+02 2.20419311523438e+03 5.15918827056885e+00 527 
7.99667382812500e+03 3.32860498046875e+03 3.93901038169861e+00 528 
6.25928125000000e+03 3.64903051757812e+03 4.18471670150757e+00 529 
7.18362158203125e+03 3.80895483398438e+03 3.91856575012207e+00 530 
7.68998535156250e+03 4.41400634765625e+03 4.26075220108032e+00 531 
2.56978906250000e+03 5.04409570312500e+03 4.93853282928467e+00 532 
8.44756933593750e+03 5.06980224609375e+03 4.57786655426025e+00 533 
8.23009375000000e+03 5.42053417968750e+03 3.90518331527710e+00 534 
6.67690087890625e+03 5.51651269531250e+03 4.07211542129517e+00 535 
8.43542480468750e+03 6.76249169921875e+03 4.30461263656616e+00 536 
8.53901660156250e+03 6.82383691406250e+03 3.69573783874512e+00 537 
7.09013037109375e+03 7.14406982421875e+03 5.48957157135010e+00 538 
6.56985986328125e+03 7.30328515625000e+03 3.78512835502625e+00 539 
7.58751904296875e+03 7.75363769531250e+03 3.83020472526550e+00 540 
6.66382763671875e+03 1.74284216308594e+03 6.02890253067017e+00 541 
6.09748437500000e+03 2.04230322265625e+03 5.75774717330933e+00 542 
3.81626708984375e+02 2.52807543945312e+03 6.30015420913696e+00 543 
8.34579199218750e+03 1.28274658203125e+02 3.71539950370789e+00 544 
7.72680371093750e+03 2.63066101074219e+02 4.27053785324097e+00 545 
7.68751904296875e+03 3.36840911865234e+02 4.93207406997681e+00 546 
3.71098315429688e+03 4.27933349609375e+02 4.73941469192505e+00 547 
8.49227734375000e+03 7.01397460937500e+02 3.83578181266785e+00 548 
5.48257324218750e+03 1.30497521972656e+03 4.64695739746094e+00 549 
6.69072412109375e+03 1.30598937988281e+03 5.13564205169678e+00 550 
7.80966015625000e+03 1.49266577148438e+03 5.38950538635254e+00 551 
8.07021484375000e+03 1.68302600097656e+03 4.46202135086060e+00 552 
8.40159570312500e+03 2.29466650390625e+03 3.95334434509277e+00 553 
7.13474951171875e+03 3.63430102539062e+03 6.77602386474609e+00 554 
2.10735180664062e+03 4.40081542968750e+03 7.74515819549561e+00 555 
2.08403125000000e+03 7.66527539062500e+03 9.19221115112305e+00 556 
1.36813171386719e+03 5.39190527343750e+03 1.15050001144409e+01 557 
5.97533325195312e+02 2.96258178710938e+03 1.46107931137085e+01 558 
7.98958203125000e+03 3.35799316406250e+03 4.49666881561279e+00 559 
1.12592651367188e+03 4.06194824218750e+03 3.97375917434692e+00 560 
4.75170288085938e+02 4.38528613281250e+03 3.81451582908630e+00 561 
2.68741333007812e+03 4.93562646484375e+03 4.98704051971436e+00 562 
7.79301367187500e+03 5.54555957031250e+03 5.27231407165527e+00 563 
3.54918041992188e+03 6.05953271484375e+03 4.61180019378662e+00 564 
4.00817962646484e+02 6.08759619140625e+03 3.63293695449829e+00 565 
8.47606054687500e+03 6.61931542968750e+03 4.98411846160889e+00 566 
7.86267626953125e+03 6.77073193359375e+03 3.82077360153198e+00 567 
6.68843798828125e+03 1.32768615722656e+03 4.95226955413818e+00 568 
5.12676513671875e+03 1.56830920410156e+03 5.68614673614502e+00 569 
3.91369091796875e+03 2.08990942382812e+03 4.34552145004272e+00 570 
6.82502929687500e+03 2.69918261718750e+03 4.29667997360229e+00 571 
7.54738183593750e+03 3.98615258789062e+03 5.56863594055176e+00 572 
8.72221191406250e+03 3.98348095703125e+03 4.14250707626343e+00 573 
5.41559716796875e+03 4.23936718750000e+03 4.46456813812256e+00 574 
7.70044970703125e+03 4.89031982421875e+03 4.82776594161987e+00 575 
6.90319030761719e+02 5.33550390625000e+03 3.55882287025452e+00 576 
6.45710253906250e+03 5.43185986328125e+03 4.18607425689697e+00 577 
6.63032519531250e+03 5.55732714843750e+03 4.98019886016846e+00 578 
6.22316223144531e+02 7.67178222656250e+03 4.28326225280762e+00 579 
7.19871240234375e+03 7.79666845703125e+03 3.64836335182190e+00 580 
5.73130920410156e+02 7.89258593750000e+03 3.98657870292664e+00 581 
1.62279345703125e+03 8.11132617187500e+03 4.07718706130981e+00 582 
4.37884960937500e+03 2.93050195312500e+03 6.70447254180908e+00 583 
1.73600878906250e+03 4.19146575927734e+02 4.35900497436523e+00 584 
6.72840478515625e+03 7.71787414550781e+02 4.34484004974365e+00 585 
3.86482592773438e+03 9.71046325683594e+02 3.86993360519409e+00 586 
2.16223535156250e+03 1.59433129882812e+03 4.04787254333496e+00 587 
8.43556250000000e+03 2.57271459960938e+03 4.08339309692383e+00 588 
8.53604101562500e+03 3.23733544921875e+03 3.88472819328308e+00 589 
6.51236962890625e+03 3.49397436523438e+03 4.13107109069824e+00 590 
7.22784570312500e+03 3.52491455078125e+03 3.90178060531616e+00 591 
7.53919482421875e+03 4.00344921875000e+03 4.38225746154785e+00 592 
5.18570703125000e+03 4.83295849609375e+03 4.71142387390137e+00 593 
7.74187158203125e+03 7.80566748046875e+03 3.85439729690552e+00 594 
5.27526660156250e+03 8.63762695312500e+03 5.16254329681396e+00 595 
8.08649511718750e+03 3.34288940429688e+03 5.90408182144165e+00 596 
1.43255218505859e+02 3.66155078125000e+03 6.08059310913086e+00 597 
5.16365600585938e+02 5.83566455078125e+03 5.61573266983032e+00 598 
7.00727685546875e+03 7.11865283203125e+03 5.95511007308960e+00 599 
6.95208154296875e+03 7.14733740234375e+03 6.66808128356934e+00 600 
8.22783496093750e+03 5.71478881835938e+02 4.25080156326294e+00 601 
6.89735791015625e+03 6.94528259277344e+02 4.21723699569702e+00 602 
7.53319970703125e+03 1.67708520507812e+03 4.04328155517578e+00 603 
3.84928442382812e+03 2.02927258300781e+03 4.11248970031738e+00 604 
8.61768554687500e+03 2.41374340820312e+03 3.97937417030334e+00 605 
6.99458886718750e+03 2.73854516601562e+03 5.18807125091553e+00 606 
6.40168017578125e+03 2.95300219726562e+03 4.87711143493652e+00 607 
7.05160644531250e+02 3.30672070312500e+03 4.27569580078125e+00 608 
6.73760888671875e+03 3.81892504882812e+03 5.51475811004639e+00 609 
7.20108056640625e+03 4.07382568359375e+03 5.39930725097656e+00 610 
5.40187646484375e+03 4.71346630859375e+03 3.95119023323059e+00 611 
8.42079003906250e+03 5.02654052734375e+03 4.11979293823242e+00 612 
3.86331518554688e+03 5.05522167968750e+03 3.81799864768982e+00 613 
3.98265063476562e+03 5.12115625000000e+03 5.41339731216431e+00 614 
6.30936132812500e+03 5.51002832031250e+03 5.00793600082397e+00 615 
6.57286718750000e+03 5.57233642578125e+03 4.63020753860474e+00 616 
7.85820068359375e+03 7.16104345703125e+03 4.11234283447266e+00 617 
4.01123260498047e+02 8.03209960937500e+03 3.94614171981812e+00 618 
2.41779272460938e+03 8.15499121093750e+03 4.23528289794922e+00 619 
8.47227832031250e+03 1.58322265625000e+03 4.69405746459961e+00 620 
4.51331494140625e+03 1.71719958496094e+03 4.15008735656738e+00 621 
2.09801831054688e+03 1.89583349609375e+03 4.12979650497437e+00 622 
6.74687646484375e+03 2.86479052734375e+03 4.65439891815186e+00 623 
8.64773437500000e+03 3.27574145507812e+03 3.71929216384888e+00 624 
5.68207568359375e+03 6.07680859375000e+03 4.24247360229492e+00 625 
6.71151123046875e+03 6.11342382812500e+03 3.96227264404297e+00 626 
7.95532470703125e+03 6.33956054687500e+03 4.70844554901123e+00 627 
3.05184399414062e+03 7.30968652343750e+03 3.99850368499756e+00 628 
5.49661621093750e+03 7.63178466796875e+03 5.56732845306396e+00 629 
8.21579199218750e+03 3.60381317138672e+02 5.93201398849487e+00 630 
4.51227020263672e+02 6.98475158691406e+02 3.84719109535217e+00 631 
7.57645019531250e+03 8.69088623046875e+02 4.92254638671875e+00 632 
6.50348193359375e+03 1.35229003906250e+03 4.93573331832886e+00 633 
4.50688330078125e+03 1.41743579101562e+03 4.47282981872559e+00 634 
7.59522851562500e+03 1.44216943359375e+03 5.01195526123047e+00 635 
7.26756933593750e+03 1.67075280761719e+03 4.20368099212646e+00 636 
7.83028271484375e+03 2.04949633789062e+03 4.02783250808716e+00 637 
6.62192810058594e+02 2.46518920898438e+03 4.45991277694702e+00 638 
8.19166894531250e+03 3.09273486328125e+03 3.97525954246521e+00 639 
6.24037646484375e+03 3.47911206054688e+03 3.81637310981750e+00 640 
8.67480664062500e+03 4.66688134765625e+03 4.17880487442017e+00 641 
8.29445922851562e+02 5.20553466796875e+03 4.28867816925049e+00 642 
7.10341406250000e+03 5.23995996093750e+03 5.51184892654419e+00 643 
6.42668408203125e+03 5.39673876953125e+03 4.78976535797119e+00 644 
8.65129687500000e+03 5.49355273437500e+03 4.68030309677124e+00 645 
2.91828686523438e+03 5.90586328125000e+03 4.21250057220459e+00 646 
7.47119482421875e+03 6.22509912109375e+03 4.95181465148926e+00 647 
8.68979980468750e+03 6.51140332031250e+03 4.42359256744385e+00 648 
8.22173925781250e+03 6.54074853515625e+03 3.97991824150085e+00 649 
7.61940917968750e+03 6.60363525390625e+03 3.80879950523376e+00 650 
3.13051782226562e+03 7.26034716796875e+03 5.32731008529663e+00 651 
7.95168554687500e+03 7.48279052734375e+03 4.22775697708130e+00 652 
7.38951416015625e+03 5.69217590332031e+02 6.35230159759521e+00 653 
7.52512158203125e+03 1.99682739257812e+03 6.74808692932129e+00 654 
8.64981250000000e+03 3.13566088867188e+03 6.52383756637573e+00 655 
1.27562805175781e+03 4.08109545898438e+03 6.54027700424194e+00 656 
4.01249731445312e+03 5.40010253906250e+03 6.20286464691162e+00 657 
8.48862207031250e+03 7.46501513671875e+03 5.95350933074951e+00 658 
6.22731750488281e+02 7.65859814453125e+03 6.22960567474365e+00 659 
1.47102587890625e+03 8.19381738281250e+03 6.84792947769165e+00 660 
4.56627978515625e+03 1.32101196289062e+02 5.39985704421997e+00 661 
3.01324902343750e+03 4.88824798583984e+02 4.54552459716797e+00 662 
3.06496093750000e+02 9.08375305175781e+02 4.38287353515625e+00 663 
7.65521679687500e+03 1.10316613769531e+03 5.19082212448120e+00 664 
3.46157348632812e+03 1.13255163574219e+03 5.49607610702515e+00 665 
5.77279101562500e+03 1.16627368164062e+03 5.20092630386353e+00 666 
4.44819482421875e+03 1.19588500976562e+03 4.60299968719482e+00 667 
6.86523864746094e+02 2.20052026367188e+03 3.82964801788330e+00 668 
3.20419262695312e+03 2.81098388671875e+03 3.87189149856567e+00 669 
2.60504833984375e+03 2.90482641601562e+03 4.67652416229248e+00 670 
5.73050976562500e+03 3.16078955078125e+03 4.35155200958252e+00 671 
8.33798437500000e+03 4.15527050781250e+03 4.84338998794556e+00 672 
7.17054736328125e+03 4.18516162109375e+03 4.12510919570923e+00 673 
2.64477734375000e+03 4.84481445312500e+03 4.01394319534302e+00 674 
6.67001757812500e+03 5.48818310546875e+03 4.27162504196167e+00 675 
4.22057470703125e+03 5.68948291015625e+03 4.17739343643188e+00 676 
8.09489257812500e+03 5.69060742187500e+03 5.04972982406616e+00 677 
6.19629931640625e+03 6.29706103515625e+03 3.37476658821106e+00 678 
7.80441943359375e+03 6.39458251953125e+03 3.82708191871643e+00 679 
3.52001123046875e+03 6.49878662109375e+03 5.16449165344238e+00 680 
6.52271240234375e+03 6.53018505859375e+03 3.85235285758972e+00 681 
7.45974755859375e+03 6.69068261718750e+03 3.94575238227844e+00 682 
8.75893652343750e+03 6.94274365234375e+03 4.02052164077759e+00 683 
1.72233728027344e+03 6.98247753906250e+03 4.25621128082275e+00 684 
2.12046923828125e+03 7.01390380859375e+03 4.30383968353271e+00 685 
6.51083886718750e+03 7.43512646484375e+03 4.40387058258057e+00 686 
8.54010644531250e+03 7.78838476562500e+03 4.33194828033447e+00 687 
8.44638769531250e+03 8.95798144531250e+03 5.17025995254517e+00 688 
1.65260754394531e+03 4.07150219726562e+03 5.53134489059448e+00 689 
8.71300000000000e+03 7.76407568359375e+03 6.55917978286743e+00 690 
5.84370361328125e+03 3.08831665039062e+02 3.80076217651367e+00 691 
7.42425000000000e+03 3.08692169189453e+02 5.07105588912964e+00 692 
7.09302978515625e+03 7.48809143066406e+02 4.08661985397339e+00 693 
1.10768969726562e+03 9.15961242675781e+02 4.71003580093384e+00 694 
7.59749755859375e+03 2.69863500976562e+03 9.99639892578125e+00 695 
7.56179150390625e+03 4.22364208984375e+03 7.72836589813232e+00 696 
1.46309057617188e+03 5.52983789062500e+03 7.45901584625244e+00 697 
6.99309509277344e+02 8.32260546875000e+03 1.26623611450195e+01 698 
6.65120654296875e+03 1.75846740722656e+03 9.90177536010742e+00 699 
7.20410595703125e+03 2.90798144531250e+03 1.04048757553101e+01 700 
5.73574658203125e+03 3.16130737304688e+03 7.29207324981689e+00 701 
7.61126074218750e+03 4.12812353515625e+03 7.29246854782104e+00 702 
1.94138769531250e+03 3.71645410156250e+03 1.43394422531128e+01 703 
1.86298718261719e+03 4.81243554687500e+03 8.43665504455566e+00 704 
7.32664892578125e+03 2.49010473632812e+03 6.68511581420898e+00 705 
8.70026269531250e+03 3.28564038085938e+03 6.74580383300781e+00 706 
7.40541894531250e+03 4.31454003906250e+03 5.78389501571655e+00 707 
7.50359082031250e+03 5.87044287109375e+03 6.37398624420166e+00 708 
7.73887451171875e+03 5.86871337890625e+03 6.27787399291992e+00 709 
6.77181103515625e+03 6.95447021484375e+03 5.73681163787842e+00 710 
3.11246362304688e+03 3.21597076416016e+02 4.62244129180908e+00 711 
1.59834216308594e+03 8.62235534667969e+02 3.68361449241638e+00 712 
1.07929199218750e+03 1.01503973388672e+03 4.59034824371338e+00 713 
6.53340429687500e+03 1.26754028320312e+03 4.10435724258423e+00 714 
1.91535546875000e+03 1.64002062988281e+03 4.23854160308838e+00 715 
7.58439013671875e+03 1.67167175292969e+03 5.42231369018555e+00 716 
5.06756103515625e+03 1.98224890136719e+03 5.55329608917236e+00 717 
8.16838525390625e+03 2.01229895019531e+03 3.97398328781128e+00 718 
8.63851757812500e+03 2.30244311523438e+03 4.97882366180420e+00 719 
1.40304992675781e+03 2.81797875976562e+03 5.08360147476196e+00 720 
4.69786816406250e+03 2.84978515625000e+03 4.60197448730469e+00 721 
4.96306610107422e+02 2.88270385742188e+03 4.00213146209717e+00 722 
7.23692871093750e+03 3.52087646484375e+03 3.83751630783081e+00 723 
1.74226684570312e+03 3.87473291015625e+03 4.77517127990723e+00 724 
3.32542211914062e+03 4.12933935546875e+03 4.57001352310181e+00 725 
8.28225390625000e+03 4.38294335937500e+03 3.85169410705566e+00 726 
8.59884960937500e+03 4.63625341796875e+03 4.08904838562012e+00 727 
2.65068505859375e+03 4.82914404296875e+03 4.30537080764771e+00 728 
2.64037768554688e+03 4.86100097656250e+03 4.64919805526733e+00 729 
7.34635498046875e+03 4.89157031250000e+03 4.39742755889893e+00 730 
3.23368383789062e+03 4.92031738281250e+03 3.97979736328125e+00 731 
8.48652148437500e+03 5.65420996093750e+03 4.11260747909546e+00 732 
8.64587304687500e+03 5.81477636718750e+03 4.47317695617676e+00 733 
2.93216821289062e+03 5.97173681640625e+03 3.83122634887695e+00 734 
6.88638134765625e+03 6.35012255859375e+03 3.80467867851257e+00 735 
4.92567822265625e+03 6.98669921875000e+03 4.61910104751587e+00 736 
2.70939770507812e+03 7.47302734375000e+03 3.90519976615906e+00 737 
6.72246777343750e+03 7.59415380859375e+03 4.27720689773560e+00 738 
6.96207226562500e+03 7.59402343750000e+03 4.31821584701538e+00 739 
2.46985620117188e+03 8.07520410156250e+03 3.96695566177368e+00 740 
6.67175634765625e+03 2.28238720703125e+03 6.22171306610107e+00 741 
3.19932788085938e+03 3.28881567382812e+03 6.44785451889038e+00 742 
6.47126318359375e+03 4.79296728515625e+03 5.93393993377686e+00 743 
7.73377685546875e+03 5.79099658203125e+03 6.38499164581299e+00 744 
7.93077636718750e+03 7.44068017578125e+03 6.33181047439575e+00 745 
8.07197216796875e+03 3.65712646484375e+02 4.23425388336182e+00 746 
6.33818261718750e+03 7.01046386718750e+02 4.12506866455078e+00 747 
8.07629687500000e+03 1.30730383300781e+03 4.87108898162842e+00 748 
6.42881787109375e+03 1.46196240234375e+03 4.24390077590942e+00 749 
7.59744287109375e+03 1.62157727050781e+03 4.55029821395874e+00 750 
7.22523046875000e+03 1.74474877929688e+03 3.94175481796265e+00 751 
4.79149609375000e+03 2.10288623046875e+03 3.58353829383850e+00 752 
8.51150585937500e+03 2.13387353515625e+03 4.49372720718384e+00 753 
8.63474902343750e+03 2.38887963867188e+03 5.36341524124146e+00 754 
2.14978247070312e+03 2.61487548828125e+03 4.25780534744263e+00 755 
6.64895996093750e+03 1.75328771972656e+03 8.65742874145508e+00 756 
1.39746069335938e+03 2.23252319335938e+03 7.05565118789673e+00 757 
1.90948291015625e+03 6.49357128906250e+03 8.39909076690674e+00 758 
2.00333020019531e+03 6.49249169921875e+03 9.35354328155518e+00 759 
4.67090332031250e+03 2.70559906005859e+02 9.16963100433350e+00 760 
7.47033398437500e+03 2.66822045898438e+03 1.09546079635620e+01 761 
8.52503710937500e+03 7.41208886718750e+03 7.42455291748047e+00 762 
1.56381066894531e+03 2.28788793945312e+03 9.27518177032471e+00 763 
1.54464648437500e+03 6.27361572265625e+03 7.58333301544189e+00 764 
7.50606494140625e+03 3.03680224609375e+03 4.66771411895752e+00 765 
3.27018505859375e+03 3.06961425781250e+03 5.23431777954102e+00 766 
7.89213720703125e+03 3.09993823242188e+03 3.83465075492859e+00 767 
8.06428125000000e+03 3.29452221679688e+03 4.03131008148193e+00 768 
6.94743261718750e+03 3.61288012695312e+03 5.03791284561157e+00 769 
6.66880371093750e+03 4.54714599609375e+03 3.90537881851196e+00 770 
5.32527441406250e+03 4.70303369140625e+03 4.70439624786377e+00 771 
