ply
format ascii 1.0
element vertex 696
property double x
property double y
property double size
property short id
end_header
3.09292553710938e+03 9.81929199218750e+03 4.65043115615845e+00 460 
4.09752148437500e+03 1.00974248046875e+04 4.29952335357666e+00 461 
3.11223803710938e+03 1.05500029296875e+04 5.76950788497925e+00 462 
3.27834814453125e+03 1.06294570312500e+04 5.95500326156616e+00 463 
1.82631628417969e+03 1.10961406250000e+04 4.99316692352295e+00 464 
3.05487988281250e+03 1.14328457031250e+04 4.24821662902832e+00 465 
4.83087646484375e+03 1.13927324218750e+04 4.37732887268066e+00 466 
3.13582788085938e+03 1.19563906250000e+04 4.53964614868164e+00 467 
7.63355407714844e+02 1.24105048828125e+04 3.49978590011597e+00 468 
2.68521044921875e+03 1.26522871093750e+04 4.77302789688110e+00 469 
5.29291552734375e+03 1.25760263671875e+04 3.86850333213806e+00 470 
4.03597119140625e+03 1.28455527343750e+04 5.70779895782471e+00 471 
7.13815966796875e+03 6.20633740234375e+03 4.79583406448364e+00 484 
8.50389257812500e+03 1.06287089843750e+04 6.14939785003662e+00 488 
7.70902197265625e+03 9.62542773437500e+03 4.29481601715088e+00 490 
8.17705957031250e+03 9.90621191406250e+03 4.71019840240479e+00 491 
8.45070117187500e+03 9.78941992187500e+03 4.14795589447021e+00 492 
4.05679321289062e+03 1.03240634765625e+04 4.20585918426514e+00 493 
6.73542968750000e+03 1.07309306640625e+04 5.05753135681152e+00 496 
8.57507421875000e+03 1.06089912109375e+04 4.27383041381836e+00 497 
7.36755664062500e+03 1.09123505859375e+04 4.58689022064209e+00 498 
7.36657470703125e+03 1.09694238281250e+04 3.95356106758118e+00 499 
5.59097216796875e+03 1.26981855468750e+04 4.00922060012817e+00 500 
3.85106372070312e+03 1.27993671875000e+04 3.88334536552429e+00 501 
6.93207714843750e+03 9.54469628906250e+03 5.34418725967407e+00 506 
7.40655371093750e+03 9.61802929687500e+03 5.05882453918457e+00 510 
8.04286572265625e+03 9.72954394531250e+03 4.10256052017212e+00 511 
8.45039746093750e+03 9.79980761718750e+03 4.33659887313843e+00 513 
5.80487011718750e+03 1.02293134765625e+04 3.96248936653137e+00 514 
1.52052355957031e+03 1.24053173828125e+04 8.61321544647217e+00 516 
6.09730957031250e+03 1.28198320312500e+04 7.94891452789307e+00 517 
8.50755664062500e+03 9.68774804687500e+03 6.36514186859131e+00 522 
3.39382836914062e+03 1.18470986328125e+04 4.09763813018799e+00 523 
7.85664941406250e+03 1.13633740234375e+04 3.94656634330750e+00 526 
8.69839233398438e+02 1.17765429687500e+04 4.73696470260620e+00 527 
8.15095849609375e+03 1.26474736328125e+04 3.83066129684448e+00 528 
6.21112939453125e+03 1.13950703125000e+04 6.15274429321289e+00 542 
5.76123901367188e+02 1.22273212890625e+04 6.57611608505249e+00 543 
7.70748095703125e+03 9.64594140625000e+03 4.86466550827026e+00 546 
3.83663476562500e+03 9.54437109375000e+03 3.75673055648804e+00 547 
5.56965185546875e+03 1.06851962890625e+04 5.58979368209839e+00 549 
6.77048388671875e+03 1.07445429687500e+04 5.98607826232910e+00 550 
7.88032275390625e+03 1.08114599609375e+04 6.14024496078491e+00 551 
8.14467089843750e+03 1.09943896484375e+04 6.28658151626587e+00 552 
8.50081933593750e+03 1.15561347656250e+04 3.73312830924988e+00 553 
8.08960937500000e+02 1.25190478515625e+04 1.61769809722900e+01 558 
8.14420605468750e+03 1.26779160156250e+04 4.83198118209839e+00 559 
6.76789648437500e+03 1.07654042968750e+04 4.45647430419922e+00 568 
5.22768066406250e+03 1.09560214843750e+04 4.86630630493164e+00 569 
4.05173706054688e+03 1.15234619140625e+04 4.20287322998047e+00 570 
7.65053222656250e+03 9.11451269531250e+03 3.91557812690735e+00 577 
6.78431250000000e+03 1.02388388671875e+04 4.93074035644531e+00 585 
3.95870947265625e+03 1.05309257812500e+04 3.83516287803650e+00 586 
8.54687402343750e+03 1.18323994140625e+04 4.28304862976074e+00 588 
6.68842382812500e+03 1.28224218750000e+04 4.01754045486450e+00 590 
7.39742285156250e+03 1.28218623046875e+04 3.50812387466431e+00 591 
8.24220019531250e+03 1.26753886718750e+04 5.69377708435059e+00 596 
8.25574023437500e+03 9.94724414062500e+03 4.07811784744263e+00 601 
6.94945361328125e+03 1.01917089843750e+04 4.08866977691650e+00 602 
7.62130712890625e+03 1.10885947265625e+04 4.16765785217285e+00 603 
3.98284423828125e+03 1.14652236328125e+04 3.66300773620605e+00 604 
8.71866113281250e+03 1.16681113281250e+04 4.34251403808594e+00 605 
6.55467773437500e+03 1.22880332031250e+04 5.07354974746704e+00 607 
8.53859082031250e+03 1.08407714843750e+04 3.96260118484497e+00 620 
2.24477758789062e+03 1.14005117187500e+04 4.11329507827759e+00 622 
6.80515576171875e+03 6.31535888671875e+03 6.02752637863159e+00 629 
8.23574316406250e+03 9.74416406250000e+03 4.55509996414185e+00 630 
7.62056591796875e+03 1.01691103515625e+04 4.74908018112183e+00 632 
6.58670898437500e+03 1.08161181640625e+04 5.30279350280762e+00 633 
4.60887988281250e+03 1.08332441406250e+04 4.29145669937134e+00 634 
7.67055761718750e+03 1.08518457031250e+04 4.99589729309082e+00 635 
7.35129687500000e+03 1.09833134765625e+04 4.47839736938477e+00 636 
7.92675683593750e+03 1.13641035156250e+04 3.95332098007202e+00 637 
7.42225976562500e+03 9.88355859375000e+03 6.45256662368774e+00 653 
7.62639697265625e+03 1.14048935546875e+04 6.61134338378906e+00 654 
8.78410644531250e+03 1.23815566406250e+04 6.41197538375854e+00 655 
4.32940734863281e+02 1.05714570312500e+04 4.14783143997192e+00 663 
7.71408447265625e+03 1.05043691406250e+04 5.33676195144653e+00 664 
3.56113305664062e+03 1.06007812500000e+04 5.14170408248901e+00 665 
5.85444238281250e+03 1.06109541015625e+04 5.13301753997803e+00 666 
4.54344873046875e+03 1.06203183593750e+04 3.83168220520020e+00 667 
8.57802551269531e+02 1.17741611328125e+04 3.64794301986694e+00 668 
3.38325170898438e+03 1.22770976562500e+04 4.06479263305664e+00 669 
7.16999316406250e+03 7.53623583984375e+03 8.52169609069824e+00 688 
5.88029736328125e+03 9.68139941406250e+03 4.03530931472778e+00 691 
7.44480859375000e+03 9.61617187500000e+03 5.14254713058472e+00 692 
7.14339794921875e+03 1.02374501953125e+04 4.38429307937622e+00 693 
1.21680725097656e+03 1.04829414062500e+04 5.02718305587769e+00 694 
6.74792285156250e+03 1.10988476562500e+04 9.33450984954834e+00 699 
5.90602441406250e+03 1.25244863281250e+04 7.19901227951050e+00 701 
7.44481591796875e+03 1.17697597656250e+04 5.71452283859253e+00 705 
3.18125341796875e+03 9.88373144531250e+03 4.63832902908325e+00 711 
1.70584582519531e+03 1.05029189453125e+04 3.86960434913635e+00 712 
1.19319274902344e+03 1.05775019531250e+04 4.70614099502563e+00 713 
2.05155419921875e+03 1.11556220703125e+04 4.46143484115601e+00 715 
7.67055468750000e+03 1.10800869140625e+04 5.18591833114624e+00 716 
5.18895800781250e+03 1.13751591796875e+04 5.71937990188599e+00 717 
8.26369238281250e+03 1.14140488281250e+04 3.98571705818176e+00 718 
8.73520898437500e+03 1.15524531250000e+04 4.90899038314819e+00 719 
4.86586572265625e+03 1.22929824218750e+04 4.49088811874390e+00 721 
7.00964660644531e+02 1.24584355468750e+04 3.95214557647705e+00 722 
7.40507226562500e+03 1.28147851562500e+04 3.99213910102844e+00 723 
6.79649121093750e+03 1.16963222656250e+04 7.34957075119019e+00 741 
8.09164062500000e+03 9.75338671875000e+03 3.98384261131287e+00 746 
6.38850732421875e+03 1.00488339843750e+04 4.09318637847900e+00 747 
7.68092675781250e+03 1.10338281250000e+04 4.11399412155151e+00 750 
7.31350585937500e+03 1.10520693359375e+04 4.36393785476685e+00 751 
4.92215283203125e+03 1.15046464843750e+04 3.65362262725830e+00 752 
8.60204199218750e+03 1.13917363281250e+04 4.17932653427124e+00 753 
8.73483593750000e+03 1.16405927734375e+04 4.89890098571777e+00 754 
2.32792871093750e+03 1.21188291015625e+04 4.76353502273560e+00 755 
6.74590234375000e+03 1.10947675781250e+04 8.76819801330566e+00 756 
4.71811181640625e+03 9.70500000000000e+03 8.23761749267578e+00 760 
3.46475219726562e+03 1.26224970703125e+04 5.04695177078247e+00 766 
8.21617089843750e+03 1.26316201171875e+04 4.02258205413818e+00 768 
7.72786523437500e+03 9.48434667968750e+03 4.93430614471436e+00 784 
8.51872070312500e+03 1.05489306640625e+04 6.49568080902100e+00 785 
6.74556152343750e+03 1.21432822265625e+04 5.59773302078247e+00 786 
8.13715917968750e+03 9.77404492187500e+03 5.00137853622437e+00 788 
8.19871972656250e+03 9.78415332031250e+03 4.30998229980469e+00 789 
6.79895458984375e+03 1.02869912109375e+04 3.89470076560974e+00 790 
3.13071923828125e+03 1.07067470703125e+04 4.12888526916504e+00 791 
7.92418603515625e+03 1.08159208984375e+04 5.56223487854004e+00 793 
3.98876757812500e+03 1.17475009765625e+04 3.63203334808350e+00 795 
8.64489062500000e+03 1.19174394531250e+04 4.63096475601196e+00 796 
3.57622778320312e+03 1.23808847656250e+04 4.13879728317261e+00 797 
7.99265087890625e+03 1.02086289062500e+04 6.08964824676514e+00 818 
3.48833764648438e+03 1.28951738281250e+04 5.91372156143188e+00 820 
6.46835498046875e+03 9.99103222656250e+03 4.04868936538696e+00 821 
7.65838378906250e+03 1.08554003906250e+04 4.60817718505859e+00 822 
5.85943994140625e+03 1.14169707031250e+04 5.25264406204224e+00 824 
6.22495361328125e+03 1.13838876953125e+04 5.89676904678345e+00 825 
8.11943164062500e+03 1.16008505859375e+04 3.75141263008118e+00 826 
8.71441406250000e+03 1.16334111328125e+04 4.66362857818604e+00 827 
8.22276464843750e+03 1.27005644531250e+04 4.94371986389160e+00 831 
8.14475732421875e+03 1.25713525390625e+04 6.40863800048828e+00 852 
4.42380761718750e+03 9.72267480468750e+03 4.19169759750366e+00 853 
6.69894677734375e+03 9.78459082031250e+03 3.96361351013184e+00 854 
5.87787353515625e+03 1.01738750000000e+04 3.90154647827148e+00 856 
6.78043261718750e+03 1.02520585937500e+04 3.83618187904358e+00 857 
7.37311083984375e+03 1.11404228515625e+04 3.85623073577881e+00 859 
5.85324267578125e+03 1.14447734375000e+04 5.41040515899658e+00 860 
8.81414746093750e+03 1.23878544921875e+04 4.42938709259033e+00 862 
6.75176074218750e+03 1.27224375000000e+04 4.12159013748169e+00 866 
8.55041601562500e+03 1.08397734375000e+04 3.67615437507629e+00 873 
8.34045996093750e+03 1.10154609375000e+04 3.96091079711914e+00 874 
5.84085644531250e+03 1.15032744140625e+04 5.43368005752563e+00 875 
5.98545605468750e+03 1.16699921875000e+04 3.58252072334290e+00 876 
5.07385693359375e+03 1.21897490234375e+04 5.11410522460938e+00 878 
8.40538867187500e+03 1.20119814453125e+04 5.34733057022095e+00 879 
4.86809130859375e+03 1.22771884765625e+04 4.93537712097168e+00 880 
6.88585986328125e+03 1.21901083984375e+04 5.05241966247559e+00 881 
6.56801611328125e+03 1.22965771484375e+04 4.39874696731567e+00 883 
8.25029199218750e+03 1.26679697265625e+04 4.00405931472778e+00 884 
6.78913964843750e+03 1.17389228515625e+04 7.23070812225342e+00 905 
3.19150708007812e+03 9.84848535156250e+03 4.41791152954102e+00 910 
2.74032128906250e+03 1.09817226562500e+04 5.01353263854980e+00 911 
7.65848193359375e+03 1.08267792968750e+04 4.44457006454468e+00 912 
8.35503710937500e+03 1.09664804687500e+04 4.15812015533447e+00 915 
7.97822265625000e+03 1.15775683593750e+04 4.73094367980957e+00 917 
3.49261474609375e+03 1.26270839843750e+04 6.53379392623901e+00 919 
6.90226806640625e+03 1.24822812500000e+04 5.90259933471680e+00 920 
5.28042089843750e+03 1.25745429687500e+04 3.99597382545471e+00 921 
7.47754003906250e+03 1.26704638671875e+04 4.24344396591187e+00 922 
6.23214746093750e+03 9.84605761718750e+03 4.78648710250854e+00 941 
6.63081298828125e+03 9.86253222656250e+03 4.77146577835083e+00 942 
7.01500000000000e+03 1.08789912109375e+04 4.04664659500122e+00 943 
8.57230566406250e+03 9.43406542968750e+03 4.29643011093140e+00 956 
6.98421972656250e+03 1.08476806640625e+04 6.10075807571411e+00 957 
2.93445751953125e+03 1.06517275390625e+04 4.17461252212524e+00 959 
6.12635937500000e+03 9.58797851562500e+03 4.06567668914795e+00 963 
5.04479931640625e+03 9.84401367187500e+03 4.08071947097778e+00 964 
4.63090087890625e+03 1.07610898437500e+04 5.66839885711670e+00 965 
8.06382226562500e+03 1.19903691406250e+04 4.01617097854614e+00 970 
5.10134765625000e+03 1.27510322265625e+04 4.88975763320923e+00 971 
5.93363916015625e+03 1.10735029296875e+04 5.46381044387817e+00 976 
8.58253710937500e+03 9.74113378906250e+03 3.80766010284424e+00 977 
4.35596093750000e+03 1.16579550781250e+04 6.32889556884766e+00 980 
5.86424560546875e+03 9.84570898437500e+03 5.12369155883789e+00 981 
3.40023876953125e+03 1.28965058593750e+04 5.09271764755249e+00 984 
5.10424658203125e+03 9.89878222656250e+03 7.55049371719360e+00 988 
6.26647656250000e+03 9.88122558593750e+03 4.07005500793457e+00 989 
3.96993408203125e+03 1.23852773437500e+04 6.04066133499146e+00 991 
2.83545874023438e+03 1.06508066406250e+04 5.82329177856445e+00 992 
8.32167089843750e+03 9.48270605468750e+03 6.70561790466309e+00 997 
5.60663574218750e+03 1.03316445312500e+04 3.79597973823547e+00 998 
3.99583789062500e+03 1.25220029296875e+04 5.02686309814453e+00 999 
8.77283496093750e+03 1.18984316406250e+04 6.53637504577637e+00 1007 
3.77117309570312e+03 1.22420107421875e+04 4.33621931076050e+00 1008 
5.29174511718750e+03 1.25937861328125e+04 3.59892177581787e+00 1009 
4.55885644531250e+03 1.19887509765625e+04 3.66906714439392e+00 1014 
1.44305383300781e+03 9.72442968750000e+03 4.17601203918457e+00 1019 
6.34592285156250e+03 1.22677060546875e+04 4.48774528503418e+00 1020 
1.63935046386719e+03 1.10427441406250e+04 4.05094432830811e+00 1021 
7.35011230468750e+03 1.16162597656250e+04 3.64047288894653e+00 1022 
5.61526562500000e+03 3.41934399414062e+03 6.10867595672607e+00 1023 
8.47711230468750e+03 2.74611523437500e+03 5.71104764938354e+00 1024 
8.71530639648438e+02 1.10858154296875e+04 3.62936902046204e+00 1025 
1.27335437011719e+03 1.15684560546875e+04 6.44761037826538e+00 1026 
2.16199487304688e+03 1.16750156250000e+04 6.64690589904785e+00 1027 
2.39297924804688e+03 1.14334853515625e+04 5.33229875564575e+00 1028 
4.42947753906250e+03 1.23341132812500e+04 4.88422107696533e+00 1029 
3.60810272216797e+02 9.71843652343750e+03 3.73414325714111e+00 1030 
2.12140063476562e+03 9.31025488281250e+03 4.27892589569092e+00 1031 
4.39446435546875e+03 9.00607910156250e+03 4.83434152603149e+00 1032 
4.00874291992188e+03 8.73504101562500e+03 5.09204101562500e+00 1033 
3.95723559570312e+03 8.13095410156250e+03 4.23207473754883e+00 1034 
5.03479296875000e+03 7.76761230468750e+03 4.92821311950684e+00 1036 
5.20504736328125e+03 7.11662890625000e+03 4.18596601486206e+00 1037 
5.87249365234375e+03 6.72288867187500e+03 3.77416467666626e+00 1038 
4.37905468750000e+03 6.19317919921875e+03 4.64938926696777e+00 1040 
4.49213671875000e+03 5.89328808593750e+03 4.73936128616333e+00 1041 
4.85105224609375e+03 5.25912402343750e+03 3.88646602630615e+00 1042 
4.38846191406250e+03 5.21137060546875e+03 4.41750192642212e+00 1043 
4.81901306152344e+02 1.28991552734375e+04 6.26625585556030e+00 1044 
3.11711425781250e+03 5.48313769531250e+03 4.98567438125610e+00 1045 
2.97197656250000e+03 1.26173232421875e+04 4.00867795944214e+00 1046 
2.76442114257812e+03 1.24069912109375e+04 3.99460792541504e+00 1047 
4.17362939453125e+03 1.16048476562500e+04 4.19442892074585e+00 1048 
3.56448852539062e+03 1.05887675781250e+04 3.75385046005249e+00 1049 
6.06153515625000e+03 9.33676367187500e+03 4.11650371551514e+00 1050 
3.16812133789062e+03 9.25877734375000e+03 3.73538947105408e+00 1051 
5.53615917968750e+03 9.07098925781250e+03 4.90820217132568e+00 1052 
2.74843969726562e+03 8.95036425781250e+03 4.22197437286377e+00 1053 
2.73364282226562e+03 8.92202246093750e+03 4.85243749618530e+00 1054 
8.60090881347656e+02 9.11618261718750e+03 3.62982463836670e+00 1055 
4.04363647460938e+03 8.74984082031250e+03 3.59187078475952e+00 1056 
1.27128674316406e+03 1.17788730468750e+04 2.14713573455811e+01 1057 
1.15075549316406e+03 5.42617382812500e+03 2.48553771972656e+01 1058 
1.71678540039062e+03 8.76343457031250e+03 3.87010645866394e+00 1059 
1.21067724609375e+03 8.84630761718750e+03 6.02501535415649e+00 1060 
4.13294042968750e+03 8.46483300781250e+03 4.65502166748047e+00 1061 
5.25670117187500e+03 6.95661474609375e+03 4.14749145507812e+00 1062 
1.73048596191406e+03 7.24964160156250e+03 4.27990627288818e+00 1063 
5.79772558593750e+03 6.71921777343750e+03 5.15847444534302e+00 1064 
3.30440112304688e+03 6.67594628906250e+03 4.84109020233154e+00 1065 
2.16933496093750e+03 6.41117431640625e+03 4.48504257202148e+00 1066 
2.96997314453125e+03 6.06904980468750e+03 4.44396877288818e+00 1067 
5.12688232421875e+03 5.23620410156250e+03 4.23508310317993e+00 1068 
3.85989257812500e+03 8.66931250000000e+03 5.93681764602661e+00 1069 
1.59218676757812e+03 1.24371855468750e+04 4.21564435958862e+00 1071 
1.69742712402344e+03 1.05621757812500e+04 4.15700626373291e+00 1073 
7.36069152832031e+02 9.68226171875000e+03 4.14497089385986e+00 1074 
4.43463085937500e+03 9.31960546875000e+03 5.60341644287109e+00 1075 
2.65660839843750e+03 8.92031738281250e+03 4.99107265472412e+00 1076 
3.17198999023438e+03 8.65270800781250e+03 5.12541055679321e+00 1077 
1.92364599609375e+03 8.01905371093750e+03 3.92848896980286e+00 1079 
3.43566284179688e+03 7.70598486328125e+03 4.49512672424316e+00 1080 
1.76841833496094e+03 7.81553515625000e+03 5.35372018814087e+00 1081 
9.30341369628906e+02 7.32067285156250e+03 4.23717069625854e+00 1082 
5.50885156250000e+03 6.05055810546875e+03 3.75105333328247e+00 1083 
4.37291308593750e+03 5.22887548828125e+03 4.40629673004150e+00 1085 
1.73056298828125e+03 6.50328710937500e+03 6.02113771438599e+00 1087 
7.36914916992188e+02 5.98559228515625e+03 6.41474437713623e+00 1088 
4.93764990234375e+03 5.10230419921875e+03 4.83158588409424e+00 1089 
9.62477966308594e+02 1.03268457031250e+04 8.51622295379639e+00 1090 
3.32778344726562e+03 8.79821972656250e+03 9.96726036071777e+00 1091 
1.79352917480469e+03 8.63992773437500e+03 8.02527618408203e+00 1092 
2.60939843750000e+03 6.94938525390625e+03 1.29117097854614e+01 1093 
2.01698150634766e+02 1.26011494140625e+04 6.82701539993286e+00 1094 
6.13855957031250e+03 1.13642343750000e+04 5.33217620849609e+00 1095 
2.69720141601562e+03 1.10806152343750e+04 4.42907238006592e+00 1096 
3.74564721679688e+03 1.06582187500000e+04 3.97911190986633e+00 1097 
3.12179736328125e+03 1.07119589843750e+04 4.16084098815918e+00 1098 
2.99466064453125e+03 9.07087597656250e+03 4.47991752624512e+00 1099 
2.78453881835938e+03 9.02634667968750e+03 5.23016595840454e+00 1100 
4.73547509765625e+03 8.60925488281250e+03 4.23347043991089e+00 1101 
1.16185437011719e+03 8.13496630859375e+03 4.89473056793213e+00 1102 
5.18315576171875e+03 7.18128417968750e+03 4.48854875564575e+00 1103 
5.41177050781250e+03 6.70174560546875e+03 5.04869556427002e+00 1104 
5.35885888671875e+03 5.80621093750000e+03 4.00017023086548e+00 1106 
3.44324096679688e+03 5.12940917968750e+03 3.64929318428040e+00 1107 
8.27412170410156e+02 6.16003466796875e+03 7.67744541168213e+00 1108 
2.09497338867188e+03 1.19128623046875e+04 3.69316315650940e+00 1109 
3.59751147460938e+03 9.51894628906250e+03 3.99142169952393e+00 1110 
4.06803247070312e+03 9.44434472656250e+03 3.65542268753052e+00 1111 
1.36350173950195e+02 9.78973144531250e+03 4.35123205184937e+00 1112 
5.83550048828125e+03 9.15645605468750e+03 4.19133186340332e+00 1113 
2.55949633789062e+03 8.07465234375000e+03 3.83949065208435e+00 1115 
1.53915136718750e+03 7.95621533203125e+03 4.42847490310669e+00 1117 
2.17055712890625e+03 7.58645312500000e+03 5.98598098754883e+00 1118 
7.69219604492188e+02 6.93677294921875e+03 4.46963834762573e+00 1119 
5.36601806640625e+03 6.20551220703125e+03 4.26267719268799e+00 1120 
5.40493750000000e+03 5.57583251953125e+03 3.69557118415833e+00 1121 
3.61856909179688e+03 5.06128466796875e+03 4.79195928573608e+00 1122 
3.76970727539062e+03 5.83584130859375e+03 3.79076004028320e+00 1123 
3.42600952148438e+03 5.52581591796875e+03 4.12123680114746e+00 1124 
1.70424377441406e+03 6.49882275390625e+03 6.30009365081787e+00 1125 
1.67223596191406e+03 6.49993457031250e+03 6.92113256454468e+00 1126 
1.13778869628906e+03 1.02232460937500e+04 4.09596872329712e+00 1127 
3.69233422851562e+03 9.36237402343750e+03 3.90634059906006e+00 1128 
2.72497729492188e+03 8.94039257812500e+03 4.41893720626831e+00 1129 
4.16490478515625e+03 8.28926171875000e+03 4.00426673889160e+00 1130 
1.57389050292969e+03 7.96853222656250e+03 3.96916437149048e+00 1131 
5.19521289062500e+03 7.22028076171875e+03 4.21094894409180e+00 1132 
3.60738134765625e+03 6.96437158203125e+03 4.98900413513184e+00 1134 
5.80879638671875e+03 6.44396484375000e+03 3.79321980476379e+00 1135 
1.80843041992188e+03 6.27820507812500e+03 4.37196588516235e+00 1137 
3.65894360351562e+03 1.17810253906250e+04 6.23739624023438e+00 1140 
6.60266418457031e+02 1.02461210937500e+04 5.62143421173096e+00 1141 
2.75426635742188e+03 8.92782910156250e+03 4.25417423248291e+00 1147 
3.82190991210938e+03 8.79696582031250e+03 5.01047849655151e+00 1148 
3.16608007812500e+03 8.82646972656250e+03 6.25919103622437e+00 1149 
1.71868334960938e+03 8.74079199218750e+03 4.40156888961792e+00 1150 
5.00135205078125e+03 7.84091503906250e+03 4.59814643859863e+00 1151 
5.16724023437500e+03 7.55898925781250e+03 4.71848964691162e+00 1152 
3.57427368164062e+03 7.36624707031250e+03 4.03943777084351e+00 1153 
5.76871337890625e+03 6.72892138671875e+03 3.84771442413330e+00 1154 
1.88749707031250e+03 5.29161572265625e+03 3.65389370918274e+00 1155 
3.60168457031250e+03 5.06767236328125e+03 3.99308276176453e+00 1156 
1.65135839843750e+03 8.33859570312500e+03 5.84490299224854e+00 1157 
4.45518408203125e+03 5.94475439453125e+03 5.24063348770142e+00 1158 
3.05569061279297e+02 1.21754453125000e+04 4.25499677658081e+00 1160 
2.64133251953125e+03 8.89529687500000e+03 4.54490470886230e+00 1162 
1.25504956054688e+03 8.72011621093750e+03 4.09188079833984e+00 1163 
4.97532812500000e+03 7.92141162109375e+03 5.94444751739502e+00 1166 
3.54155908203125e+03 6.49806298828125e+03 6.14065170288086e+00 1167 
1.97566918945312e+03 6.31868750000000e+03 4.76428747177124e+00 1168 
2.10204272460938e+03 9.47960937500000e+03 9.57415199279785e+00 1169 
4.47383984375000e+03 8.08323535156250e+03 8.07718181610107e+00 1170 
4.08596069335938e+02 7.82997216796875e+03 7.43120670318604e+00 1171 
2.62026904296875e+03 6.73600195312500e+03 9.47773647308350e+00 1172 
4.46775341796875e+03 6.50344140625000e+03 7.73419427871704e+00 1173 
9.31506774902344e+02 5.37701464843750e+03 1.12600822448730e+01 1174 
2.32963891601562e+03 6.25755859375000e+03 7.95326519012451e+00 1175 
2.53541308593750e+03 5.69270361328125e+03 8.09674358367920e+00 1176 
4.32180859375000e+03 6.50900683593750e+03 1.17975015640259e+01 1177 
7.68257324218750e+02 5.77018115234375e+03 1.33844776153564e+01 1178 
1.22997424316406e+03 1.17500712890625e+04 8.27834510803223e+00 1179 
2.64052343750000e+03 1.28853154296875e+04 5.12710332870483e+00 1180 
9.14609436035156e+02 9.53906933593750e+03 4.54422473907471e+00 1181 
1.41396643066406e+03 9.36573046875000e+03 4.18871021270752e+00 1182 
2.33055004882812e+03 8.32969726562500e+03 4.51200056076050e+00 1183 
4.42318359375000e+03 8.08661816406250e+03 3.66045522689819e+00 1184 
5.71194873046875e+03 7.87180908203125e+03 5.24581575393677e+00 1185 
5.69922509765625e+03 7.75212255859375e+03 5.38439512252808e+00 1186 
3.60841125488281e+02 8.05061669921875e+03 5.79502964019775e+00 1187 
1.05988598632812e+03 7.93936230468750e+03 4.03039789199829e+00 1188 
5.14108691406250e+03 7.43010058593750e+03 4.97049331665039e+00 1189 
1.73215661621094e+03 7.35215380859375e+03 3.99591779708862e+00 1191 
1.21862048339844e+03 7.39706103515625e+03 4.06426620483398e+00 1192 
1.28340652465820e+02 7.12152587890625e+03 3.69559383392334e+00 1194 
2.61683105468750e+03 6.75445507812500e+03 5.37263154983521e+00 1195 
4.45962451171875e+03 6.18073486328125e+03 4.93378782272339e+00 1196 
2.94033544921875e+03 6.22243261718750e+03 4.78022718429565e+00 1197 
2.89495776367188e+03 6.22799658203125e+03 5.12284278869629e+00 1198 
2.84776708984375e+03 6.23231445312500e+03 5.06778001785278e+00 1199 
4.44676611328125e+03 5.89629492187500e+03 4.10294055938721e+00 1200 
2.53378662109375e+03 5.33381689453125e+03 4.21295928955078e+00 1201 
3.41598681640625e+03 5.16422509765625e+03 3.87192988395691e+00 1202 
4.86148925781250e+03 1.04756220703125e+04 6.37632942199707e+00 1203 
2.96830371093750e+03 5.27068115234375e+03 6.04937028884888e+00 1204 
5.19844873046875e+03 1.11684980468750e+04 5.59959220886230e+00 1206 
1.86074508666992e+02 9.93354101562500e+03 3.90434765815735e+00 1208 
5.35335595703125e+03 9.30379980468750e+03 4.47817277908325e+00 1209 
4.71248095703125e+03 8.87265234375000e+03 4.52875947952271e+00 1210 
5.86807678222656e+02 5.67631738281250e+03 2.69608860015869e+01 1211 
1.22399450683594e+03 5.31332421875000e+03 1.55060386657715e+01 1212 
5.60674011230469e+02 5.60249218750000e+03 2.79633483886719e+01 1213 
1.35792846679688e+03 5.63018994140625e+03 3.59691200256348e+01 1214 
5.04512402343750e+03 8.33888867187500e+03 4.15970849990845e+00 1215 
5.69473339843750e+03 7.84299462890625e+03 5.16906881332397e+00 1216 
3.48547637939453e+02 8.12422119140625e+03 4.10307455062866e+00 1217 
1.04642077636719e+03 7.98136718750000e+03 3.87406539916992e+00 1218 
4.09255493164062e+03 7.68734667968750e+03 4.15375328063965e+00 1220 
3.91633544921875e+03 7.63840380859375e+03 3.99931240081787e+00 1221 
3.49426660156250e+03 7.66964404296875e+03 3.87699985504150e+00 1222 
4.58468945312500e+03 7.34862695312500e+03 4.99452209472656e+00 1223 
1.17367761230469e+03 7.55282421875000e+03 4.13961744308472e+00 1224 
5.85799169921875e+03 7.06815283203125e+03 4.02328062057495e+00 1225 
3.55475463867188e+03 6.50768994140625e+03 5.14307403564453e+00 1226 
2.69082446289062e+03 6.28559277343750e+03 4.03276634216309e+00 1227 
3.60694946289062e+03 6.14835839843750e+03 3.97654247283936e+00 1228 
5.53034765625000e+03 5.36347607421875e+03 3.86598324775696e+00 1230 
1.80239819335938e+03 5.70741162109375e+03 4.06449174880981e+00 1231 
2.28333227539062e+03 5.46778759765625e+03 3.68970465660095e+00 1232 
4.29615869140625e+03 5.22617480468750e+03 4.49763488769531e+00 1233 
3.53872949218750e+03 6.91142431640625e+03 5.04424047470093e+00 1234 
2.24538256835938e+03 5.48072949218750e+03 7.28073692321777e+00 1235 
2.01013595581055e+02 1.29077890625000e+04 4.86563682556152e+00 1238 
3.31392797851562e+03 1.23288037109375e+04 3.75409722328186e+00 1239 
4.78851074218750e+03 1.04087675781250e+04 3.59382653236389e+00 1241 
5.21192675781250e+03 9.17998730468750e+03 3.95928454399109e+00 1243 
2.99127294921875e+03 9.02042382812500e+03 4.83549356460571e+00 1244 
7.09243850708008e+01 8.79951367187500e+03 4.92346096038818e+00 1247 
5.04040576171875e+03 8.24135839843750e+03 4.29601240158081e+00 1248 
1.00801324462891e+03 8.66218359375000e+03 4.56438207626343e+00 1249 
1.14373193359375e+03 8.50072363281250e+03 5.15447235107422e+00 1250 
1.03487109375000e+03 8.49737402343750e+03 4.89121150970459e+00 1251 
5.80913574218750e+03 7.85618603515625e+03 3.80035996437073e+00 1252 
2.74740112304688e+03 7.34632812500000e+03 3.96242403984070e+00 1253 
1.58545568847656e+03 7.25678857421875e+03 3.43905615806580e+00 1255 
1.37528283691406e+03 7.15208691406250e+03 3.86888766288757e+00 1256 
1.55148461914062e+03 6.54408251953125e+03 4.24857616424561e+00 1257 
4.52538574218750e+03 6.17455859375000e+03 4.25480270385742e+00 1259 
4.36748632812500e+03 6.19115429687500e+03 4.99440240859985e+00 1260 
2.67751171875000e+03 6.29852539062500e+03 5.52756881713867e+00 1261 
1.64042041015625e+03 6.12623632812500e+03 4.34192895889282e+00 1262 
3.38261743164062e+03 5.35268359375000e+03 4.06770896911621e+00 1263 
3.32067651367188e+03 6.68307519531250e+03 1.14050111770630e+01 1264 
3.34203637695312e+03 8.39355175781250e+03 8.90911674499512e+00 1265 
4.71130908203125e+03 7.15719824218750e+03 1.03945045471191e+01 1266 
4.39832763671875e+03 6.87973583984375e+03 1.07770814895630e+01 1267 
4.71274169921875e+03 9.72744628906250e+03 8.89105892181396e+00 1268 
2.98222656250000e+03 7.71487939453125e+03 1.10227413177490e+01 1269 
1.63732177734375e+03 1.23429462890625e+04 5.15219736099243e+00 1270 
6.20861181640625e+03 1.17576035156250e+04 3.57942891120911e+00 1271 
3.26222259521484e+02 9.59603417968750e+03 5.46855163574219e+00 1272 
5.83624414062500e+03 8.60437500000000e+03 3.98287248611450e+00 1273 
4.91649072265625e+03 8.20593847656250e+03 4.67838621139526e+00 1275 
4.72982226562500e+03 8.22570312500000e+03 3.78697919845581e+00 1276 
1.88785644531250e+03 8.32136230468750e+03 4.26948928833008e+00 1277 
4.11019775390625e+03 7.76410888671875e+03 5.09527730941772e+00 1278 
1.11396553039551e+02 7.57135156250000e+03 4.41934967041016e+00 1280 
1.37118579101562e+03 7.16798974609375e+03 3.90246653556824e+00 1281 
1.61159020996094e+03 6.21118505859375e+03 4.19946956634521e+00 1282 
1.65210778808594e+03 6.14522802734375e+03 3.92639446258545e+00 1283 
5.77693212890625e+03 5.67125781250000e+03 4.67423105239868e+00 1284 
4.02665698242188e+03 5.33677392578125e+03 3.85328531265259e+00 1285 
2.05474414062500e+03 5.47728564453125e+03 3.72542476654053e+00 1286 
1.78624359130859e+02 1.26795712890625e+04 5.51587533950806e+00 1287 
2.78267553710938e+03 1.23054990234375e+04 4.11053562164307e+00 1288 
4.64202734375000e+03 1.07663847656250e+04 3.66520762443542e+00 1289 
2.61210278320312e+03 1.00733613281250e+04 4.43664312362671e+00 1290 
2.35474267578125e+03 9.34480078125000e+03 4.56153059005737e+00 1291 
7.62021789550781e+01 9.27840527343750e+03 4.84005355834961e+00 1292 
2.69764160156250e+03 8.75014160156250e+03 3.87966251373291e+00 1293 
1.02417492675781e+03 8.00077539062500e+03 4.18951892852783e+00 1294 
2.57173754882812e+03 7.73957470703125e+03 3.97030878067017e+00 1295 
1.08241613769531e+03 7.77397656250000e+03 3.86211776733398e+00 1296 
3.56277954101562e+03 7.37509423828125e+03 5.78198146820068e+00 1297 
2.82734790039062e+03 6.37155078125000e+03 4.75018930435181e+00 1298 
2.16610058593750e+03 6.39890185546875e+03 4.15820264816284e+00 1299 
5.32285449218750e+03 6.08032519531250e+03 4.91129446029663e+00 1300 
4.36594238281250e+03 5.99977880859375e+03 3.78708767890930e+00 1301 
3.96739477539062e+03 6.03168359375000e+03 5.10103368759155e+00 1302 
5.61198779296875e+03 5.67953564453125e+03 4.51584577560425e+00 1303 
1.83771838378906e+03 5.65184814453125e+03 4.33465862274170e+00 1304 
4.83210546875000e+03 5.04010107421875e+03 4.22039508819580e+00 1305 
2.86688745117188e+03 5.12365917968750e+03 5.41028451919556e+00 1306 
3.52873388671875e+03 6.08539697265625e+03 4.75060462951660e+00 1307 
3.51336572265625e+03 6.08742285156250e+03 4.20292091369629e+00 1308 
5.69621728515625e+03 5.44049755859375e+03 4.44114780426025e+00 1309 
1.84612023925781e+03 5.63781884765625e+03 4.33461475372314e+00 1311 
4.63896289062500e+03 5.14066699218750e+03 3.73015046119690e+00 1312 
6.02837028503418e+01 6.14508789062500e+03 6.16676330566406e+00 1314 
3.29815112304688e+03 5.52540136718750e+03 6.49396514892578e+00 1315 
1.61707971191406e+03 1.24181845703125e+04 5.43712043762207e+00 1318 
6.07237060546875e+03 1.18430087890625e+04 3.73734688758850e+00 1319 
4.22562072753906e+02 1.17750732421875e+04 4.66292619705200e+00 1320 
2.67220043945312e+03 9.39434667968750e+03 3.68958091735840e+00 1321 
2.68952832031250e+03 9.32608789062500e+03 4.85346794128418e+00 1322 
3.16451269531250e+03 8.77405371093750e+03 5.01303863525391e+00 1323 
6.11393066406250e+02 8.88454199218750e+03 4.58240556716919e+00 1324 
5.01521972656250e+03 8.32999218750000e+03 4.29735040664673e+00 1326 
5.83415966796875e+03 7.84439111328125e+03 4.95999956130981e+00 1327 
5.85128857421875e+03 7.81422802734375e+03 5.17614698410034e+00 1328 
3.68907928466797e+02 8.19337109375000e+03 4.99100160598755e+00 1329 
3.31063989257812e+03 7.85071289062500e+03 5.02926492691040e+00 1330 
1.19613769531250e+03 7.47558251953125e+03 4.12115430831909e+00 1331 
5.84043505859375e+03 6.57896972656250e+03 4.83483076095581e+00 1332 
1.27244140625000e+03 6.64992724609375e+03 3.83090472221375e+00 1334 
6.15688354492188e+02 6.55768457031250e+03 5.04919719696045e+00 1335 
2.64480395507812e+03 5.68506933593750e+03 5.62761878967285e+00 1336 
2.57938525390625e+03 5.69334521484375e+03 4.50847339630127e+00 1337 
4.80655810546875e+03 5.43498437500000e+03 4.36396121978760e+00 1338 
1.82855505371094e+03 5.66556445312500e+03 4.24355459213257e+00 1339 
2.75423071289062e+03 5.13001757812500e+03 3.65416193008423e+00 1340 
4.51932128906250e+03 8.08354589843750e+03 6.21957063674927e+00 1341 
5.20533105468750e+03 1.11380947265625e+04 5.29567670822144e+00 1343 
5.31849755859375e+03 9.31589746093750e+03 4.71263504028320e+00 1346 
3.16936462402344e+02 9.62050585937500e+03 5.64008235931396e+00 1347 
1.59490722656250e+03 9.35565722656250e+03 4.97768068313599e+00 1348 
1.60801977539062e+03 9.32208398437500e+03 5.25050449371338e+00 1349 
4.90355273437500e+03 8.30962695312500e+03 4.25653743743896e+00 1351 
5.05789843750000e+03 8.23402539062500e+03 4.41129112243652e+00 1352 
3.57151489257812e+02 8.53000488281250e+03 4.33313322067261e+00 1353 
2.70932177734375e+03 7.95424218750000e+03 4.10743284225464e+00 1354 
5.16173437500000e+03 7.61716113281250e+03 3.75720071792603e+00 1355 
3.42987011718750e+03 7.71483886718750e+03 3.93990302085876e+00 1356 
4.54092919921875e+03 7.33738330078125e+03 4.54903125762939e+00 1357 
1.08509106445312e+03 7.21435449218750e+03 3.60112953186035e+00 1358 
4.34766601562500e+03 6.84793701171875e+03 4.93908023834229e+00 1359 
4.48886962890625e+03 6.75140673828125e+03 4.06160736083984e+00 1360 
3.79069873046875e+03 6.06825634765625e+03 4.78709363937378e+00 1363 
1.57960925292969e+03 6.22489257812500e+03 4.37303400039673e+00 1364 
2.84703076171875e+03 5.19666113281250e+03 4.58821725845337e+00 1365 
4.53298486328125e+03 4.85712402343750e+03 3.78007793426514e+00 1366 
2.66838159179688e+03 1.25466103515625e+04 3.81389236450195e+00 1368 
1.69453833007812e+03 1.25758417968750e+04 4.25464010238647e+00 1369 
2.31378369140625e+03 1.21683916015625e+04 3.67877793312073e+00 1370 
4.66525537109375e+03 9.88575292968750e+03 5.26676177978516e+00 1371 
5.39622314453125e+03 9.10807226562500e+03 4.09599399566650e+00 1373 
3.04468432617188e+03 9.04825683593750e+03 5.83600950241089e+00 1374 
4.92921093750000e+03 8.22147656250000e+03 3.86312556266785e+00 1375 
1.96419580078125e+03 9.24209667968750e+03 7.86184453964233e+00 1376 
3.24512939453125e+03 8.10533593750000e+03 1.32169208526611e+01 1377 
3.32094506835938e+03 7.64100634765625e+03 1.41234922409058e+01 1378 
1.12787182617188e+03 5.37787792968750e+03 1.23851451873779e+01 1379 
2.44496459960938e+02 1.28351562500000e+04 8.08350372314453e+00 1380 
2.63143139648438e+03 6.71077929687500e+03 8.37785911560059e+00 1381 
4.24331445312500e+03 6.06666406250000e+03 3.71867918968201e+00 1383 
4.24934863281250e+03 7.20990429687500e+03 8.85363769531250e+00 1384 
5.32757617187500e+03 5.55219726562500e+03 4.44626188278198e+00 1386 
3.33274487304688e+03 1.05825996093750e+04 3.70380330085754e+00 1387 
3.61951196289062e+03 6.83894238281250e+03 3.76064586639404e+00 1388 
5.68149902343750e+03 8.80185644531250e+03 4.80915689468384e+00 1389 
2.74702197265625e+03 7.33210986328125e+03 3.97153902053833e+00 1390 
4.20522412109375e+03 5.54683056640625e+03 4.76081848144531e+00 1391 
5.04629101562500e+03 8.21924902343750e+03 4.34601783752441e+00 1393 
5.52057177734375e+03 5.33081787109375e+03 3.81916332244873e+00 1394 
5.26672753906250e+03 1.11848369140625e+04 4.68778610229492e+00 1396 
2.27693579101562e+03 9.02202734375000e+03 6.24130392074585e+00 1397 
1.09566723632812e+03 7.21513623046875e+03 4.21156120300293e+00 1399 
4.36859985351562e+02 5.44049755859375e+03 2.77246780395508e+01 1400 
5.38566162109375e+02 5.39971240234375e+03 1.91422939300537e+01 1401 
6.56587036132812e+02 5.18114306640625e+03 3.74339270591736e+00 1402 
4.71247283935547e+02 5.54359179687500e+03 5.62368154525757e+00 1403 
4.18772900390625e+03 7.03045263671875e+03 3.95847535133362e+00 1404 
4.75436668395996e+01 6.38969384765625e+03 4.70109224319458e+00 1405 
9.71071289062500e+02 8.74470507812500e+03 5.39548397064209e+00 1406 
3.82708374023438e+02 7.18735205078125e+03 4.70924043655396e+00 1407 
5.30999267578125e+03 5.78191503906250e+03 4.21441984176636e+00 1408 
1.66875122070312e+03 8.41387597656250e+03 5.12182474136353e+00 1409 
3.80010595703125e+03 8.89667871093750e+03 4.00227212905884e+00 1410 
4.43972021484375e+03 9.83676464843750e+03 3.75324153900146e+00 1411 
2.31565307617188e+03 1.02220781250000e+04 4.70177698135376e+00 1412 
2.38765777587891e+02 8.71774902343750e+03 4.62126159667969e+00 1413 
1.14886242675781e+03 7.54483398437500e+03 4.22095394134521e+00 1414 
8.12977966308594e+02 5.30254931640625e+03 1.52462511062622e+01 1415 
6.28101135253906e+02 6.92890869140625e+03 4.22883033752441e+00 1416 
1.40769482421875e+03 1.00391621093750e+04 5.36343002319336e+00 1417 
2.72471313476562e+02 6.99832958984375e+03 5.32417964935303e+00 1418 
1.62066381835938e+03 6.15876708984375e+03 4.65789461135864e+00 1419 
7.82477798461914e+01 7.34777685546875e+03 5.37835216522217e+00 1420 
4.19715527343750e+03 4.40893652343750e+03 4.11276817321777e+00 1421 
3.87175483703613e+01 6.43401806640625e+03 4.04695606231689e+00 1422 
5.70675878906250e+03 5.45625341796875e+03 4.73858213424683e+00 1423 
1.06050622558594e+03 7.85006689453125e+03 3.76613879203796e+00 1424 
1.00518821716309e+02 7.61303613281250e+03 4.50241661071777e+00 1425 
3.77161163330078e+02 6.94645849609375e+03 4.03238153457642e+00 1426 
7.28238037109375e+03 7.62314111328125e+03 4.23124885559082e+00 1427 
3.26619311523438e+03 8.11070800781250e+03 4.30233049392700e+00 1428 
7.65010839843750e+03 6.85072070312500e+03 3.90845870971680e+00 1429 
6.61803710937500e+03 6.50282812500000e+03 3.84560036659241e+00 1430 
8.02616015625000e+03 6.14455810546875e+03 3.66088008880615e+00 1431 
6.16767431640625e+03 5.05854541015625e+03 4.06432676315308e+00 1432 
6.43278222656250e+03 9.05561718750000e+03 5.10461950302124e+00 1433 
6.16858496093750e+03 9.08836816406250e+03 3.92245960235596e+00 1434 
7.04284472656250e+03 7.81164892578125e+03 3.72536587715149e+00 1435 
7.09033349609375e+03 7.71232910156250e+03 4.99132823944092e+00 1436 
6.82527685546875e+03 7.21657812500000e+03 4.70459032058716e+00 1437 
7.69056787109375e+03 6.88937744140625e+03 4.20595407485962e+00 1438 
6.02316162109375e+03 5.50087402343750e+03 4.76347875595093e+00 1439 
7.75975195312500e+03 4.87803027343750e+03 4.32789134979248e+00 1440 
6.00033593750000e+03 4.69250537109375e+03 8.56897926330566e+00 1441 
6.27757226562500e+03 8.85284765625000e+03 9.43004035949707e+00 1442 
7.29444287109375e+03 7.57120800781250e+03 1.04698104858398e+01 1443 
8.56913476562500e+03 1.02058417968750e+04 4.10596275329590e+00 1444 
8.42483105468750e+03 9.40338769531250e+03 5.17078161239624e+00 1445 
4.02467431640625e+03 9.40604394531250e+03 3.78621077537537e+00 1446 
8.25270800781250e+03 8.35476660156250e+03 4.51903152465820e+00 1447 
6.78291552734375e+03 6.86405468750000e+03 4.45452404022217e+00 1448 
6.28094775390625e+03 6.83097558593750e+03 4.03224372863770e+00 1449 
7.95089062500000e+03 6.38129199218750e+03 4.26763963699341e+00 1450 
6.98287158203125e+03 6.40452441406250e+03 3.93846750259399e+00 1451 
7.59204833984375e+03 4.84004296875000e+03 5.32988071441650e+00 1452 
7.78313134765625e+03 4.43730615234375e+03 3.85165190696716e+00 1453 
7.21684326171875e+03 1.21110009765625e+04 5.15285825729370e+00 1454 
7.24895410156250e+03 1.20002812500000e+04 4.38587570190430e+00 1455 
8.60505761718750e+03 1.04132949218750e+04 4.63168144226074e+00 1456 
8.03314990234375e+03 9.10586328125000e+03 3.93040537834167e+00 1457 
6.18438525390625e+03 8.03380664062500e+03 5.31210947036743e+00 1458 
6.74619482421875e+03 7.79868115234375e+03 4.72631263732910e+00 1459 
6.28190136718750e+03 5.98743603515625e+03 4.45412063598633e+00 1460 
7.86618359375000e+03 5.44320849609375e+03 4.31862688064575e+00 1461 
7.82691699218750e+03 5.38085205078125e+03 3.78766274452209e+00 1462 
7.78510693359375e+03 4.83413427734375e+03 5.16229391098022e+00 1464 
6.39672509765625e+03 8.30083105468750e+03 1.06774883270264e+01 1465 
7.35206298828125e+03 8.41353222656250e+03 4.08783006668091e+00 1467 
8.15387255859375e+03 8.24665820312500e+03 4.67543220520020e+00 1468 
6.13668408203125e+03 7.73738818359375e+03 4.47665357589722e+00 1469 
6.90133105468750e+03 7.23367480468750e+03 3.93448400497437e+00 1470 
8.05110205078125e+03 6.38359375000000e+03 4.40984821319580e+00 1471 
7.47348388671875e+03 6.04307763671875e+03 4.61877870559692e+00 1472 
6.11074609375000e+03 8.65387597656250e+03 5.07457733154297e+00 1473 
6.16344726562500e+03 9.73659472656250e+03 3.80948781967163e+00 1476 
7.78686279296875e+03 8.34516699218750e+03 3.98092889785767e+00 1477 
2.99201879882812e+03 8.86491210937500e+03 3.89579629898071e+00 1478 
7.98859277343750e+03 7.77473046875000e+03 5.39370679855347e+00 1479 
7.71052636718750e+03 6.93811474609375e+03 3.78689002990723e+00 1480 
6.70404980468750e+03 6.83386035156250e+03 4.97593259811401e+00 1481 
6.48138574218750e+03 6.51825195312500e+03 4.63923788070679e+00 1482 
7.51625390625000e+03 6.04468408203125e+03 3.79892086982727e+00 1483 
6.46122607421875e+03 5.28961132812500e+03 4.12877368927002e+00 1485 
6.50977685546875e+03 4.92386083984375e+03 4.78764963150024e+00 1486 
6.14962988281250e+03 4.72296630859375e+03 3.99896454811096e+00 1487 
7.58811083984375e+03 1.22415634765625e+04 4.00550794601440e+00 1488 
8.06049853515625e+03 1.18890449218750e+04 4.23960399627686e+00 1489 
6.93979199218750e+03 1.19379814453125e+04 3.84190511703491e+00 1490 
7.61154052734375e+03 8.28526269531250e+03 4.44503879547119e+00 1491 
6.56340478515625e+03 1.12528427734375e+04 3.62091016769409e+00 1492 
7.83509570312500e+03 9.00289160156250e+03 4.21548128128052e+00 1493 
7.64197412109375e+03 8.63633007812500e+03 4.69734716415405e+00 1494 
7.72803125000000e+03 8.28639941406250e+03 5.48248577117920e+00 1495 
6.39737792968750e+03 8.29215527343750e+03 5.31958580017090e+00 1496 
6.68554345703125e+03 8.03115771484375e+03 5.32118034362793e+00 1497 
6.43377148437500e+03 7.79847265625000e+03 4.20511722564697e+00 1498 
7.90192724609375e+03 7.33722802734375e+03 5.09757137298584e+00 1499 
7.23731250000000e+03 6.31467431640625e+03 3.98107457160950e+00 1500 
7.88009228515625e+03 6.17946533203125e+03 3.66644215583801e+00 1501 
6.04606933593750e+03 6.17979882812500e+03 4.42546653747559e+00 1502 
6.44082568359375e+03 6.06750048828125e+03 4.93993949890137e+00 1503 
7.81882080078125e+03 5.48800585937500e+03 4.45042896270752e+00 1504 
7.27122656250000e+03 4.61030419921875e+03 4.62885236740112e+00 1505 
5.81646679687500e+03 4.72450000000000e+03 5.97700023651123e+00 1506 
6.24700048828125e+03 9.63545410156250e+03 4.46010208129883e+00 1507 
8.10417578125000e+03 8.43021386718750e+03 5.16682195663452e+00 1508 
7.31891210937500e+03 8.45052929687500e+03 5.35988378524780e+00 1509 
7.95758935546875e+03 7.74559667968750e+03 3.99819922447205e+00 1510 
7.93226953125000e+03 6.44788818359375e+03 4.33105611801147e+00 1511 
7.68960400390625e+03 4.72494628906250e+03 5.28080129623413e+00 1512 
6.40478613281250e+03 7.81927197265625e+03 5.09969377517700e+00 1513 
3.26281079101562e+03 8.14076074218750e+03 3.79895520210266e+00 1514 
7.69058349609375e+03 7.01060693359375e+03 4.22435665130615e+00 1515 
7.85059765625000e+03 5.53662304687500e+03 3.71294021606445e+00 1516 
6.59850244140625e+03 5.34573730468750e+03 5.28939676284790e+00 1517 
7.74073095703125e+03 4.86203271484375e+03 3.71674442291260e+00 1518 
6.62447949218750e+03 4.57617773437500e+03 5.20029258728027e+00 1519 
6.10959912109375e+03 6.23736718750000e+03 5.69874620437622e+00 1520 
6.65479052734375e+03 1.25449121093750e+04 4.29116392135620e+00 1522 
4.43197558593750e+03 9.53115429687500e+03 4.55564212799072e+00 1523 
7.08955908203125e+03 8.49760937500000e+03 5.32423162460327e+00 1524 
8.03045605468750e+03 7.06682128906250e+03 4.28599405288696e+00 1525 
7.67505517578125e+03 6.92704492187500e+03 4.17963314056396e+00 1526 
3.28070898437500e+03 6.73473632812500e+03 5.95053148269653e+00 1528 
5.83102441406250e+03 4.86051953125000e+03 6.94986057281494e+00 1529 
7.00758789062500e+03 1.19520253906250e+04 4.17103290557861e+00 1531 
8.05757275390625e+03 7.98956005859375e+03 4.12479114532471e+00 1532 
7.96918750000000e+03 7.62179199218750e+03 3.93644547462463e+00 1533 
8.03662988281250e+03 7.02284863281250e+03 4.45519208908081e+00 1534 
1.80202343750000e+03 6.50788769531250e+03 3.88693404197693e+00 1536 
5.99845947265625e+03 5.87292187500000e+03 3.78682613372803e+00 1537 
7.08389941406250e+03 4.59638281250000e+03 5.17013072967529e+00 1538 
6.97139892578125e+03 4.60895849609375e+03 4.42030096054077e+00 1539 
5.79407031250000e+03 4.70455468750000e+03 3.71524262428284e+00 1540 
6.55447167968750e+03 7.62533886718750e+03 5.33572483062744e+00 1541 
2.05555688476562e+03 7.51004687500000e+03 5.08178710937500e+00 1542 
6.36669628906250e+03 6.97967822265625e+03 5.09663343429565e+00 1543 
7.50379492187500e+03 6.05019580078125e+03 4.77256202697754e+00 1544 
6.84209179687500e+03 5.91927880859375e+03 4.35135746002197e+00 1545 
6.39956787109375e+03 8.27155859375000e+03 9.10443305969238e+00 1546 
6.94611767578125e+03 4.59772900390625e+03 5.05301237106323e+00 1547 
7.67126855468750e+03 7.35832763671875e+03 4.69996452331543e+00 1548 
7.88474462890625e+03 4.83960791015625e+03 5.17159271240234e+00 1549 
7.15383691406250e+03 4.52819726562500e+03 5.10439300537109e+00 1550 
6.95473779296875e+03 8.89053222656250e+03 5.73823261260986e+00 1551 
7.89582666015625e+03 6.85733349609375e+03 5.02023410797119e+00 1552 
7.55844628906250e+03 1.26611621093750e+04 4.34054136276245e+00 1553 
6.94808105468750e+03 9.13047656250000e+03 3.82789039611816e+00 1554 
7.09049853515625e+03 8.47922265625000e+03 5.03004598617554e+00 1555 
7.98888964843750e+03 6.93272314453125e+03 4.47028541564941e+00 1556 
6.47753076171875e+03 6.39419335937500e+03 4.76636171340942e+00 1557 
6.07215087890625e+03 6.25470654296875e+03 3.93190598487854e+00 1558 
5.82619970703125e+03 5.84068164062500e+03 3.66100311279297e+00 1559 
6.42858544921875e+03 4.90469775390625e+03 5.10585927963257e+00 1560 
7.71837158203125e+03 7.41007080078125e+03 6.52018785476685e+00 1561 
7.45940478515625e+03 8.86831835937500e+03 4.66515541076660e+00 1562 
6.93206005859375e+03 9.53202539062500e+03 4.46599578857422e+00 1563 
7.84061914062500e+03 9.02981542968750e+03 4.04330062866211e+00 1564 
4.56054492187500e+03 9.05741406250000e+03 4.83287191390991e+00 1565 
7.04149072265625e+03 7.04132861328125e+03 3.63992595672607e+00 1566 
8.03895068359375e+03 6.85676660156250e+03 4.94588470458984e+00 1567 
6.51903710937500e+03 7.03851269531250e+03 3.62162303924561e+00 1568 
6.91779931640625e+03 5.53482519531250e+03 3.91028547286987e+00 1569 
7.85307226562500e+03 4.73183349609375e+03 4.88859653472900e+00 1570 
7.63196289062500e+03 4.69841308593750e+03 5.59879207611084e+00 1571 
7.01610498046875e+03 4.52712500000000e+03 5.21120262145996e+00 1572 
6.24836376953125e+03 4.62503173828125e+03 4.19102716445923e+00 1573 
7.63329638671875e+03 4.90131250000000e+03 6.12015819549561e+00 1574 
8.31832324218750e+03 1.29267998046875e+04 3.94460248947144e+00 1575 
6.68166552734375e+03 9.07247460937500e+03 5.05965614318848e+00 1576 
7.97610009765625e+03 8.53703417968750e+03 5.41699981689453e+00 1577 
7.46088378906250e+03 6.00090527343750e+03 3.71159815788269e+00 1578 
6.86983837890625e+03 6.17365283203125e+03 4.95444679260254e+00 1579 
7.90801562500000e+03 4.73098681640625e+03 4.99119138717651e+00 1580 
8.67941015625000e+03 1.24725410156250e+04 5.76726245880127e+00 1581 
7.62872119140625e+03 5.02788769531250e+03 4.34227991104126e+00 1582 
6.98916259765625e+03 5.07625830078125e+03 5.21778392791748e+00 1583 
9.45952331542969e+02 9.51112597656250e+03 4.06959724426270e+00 1584 
4.14863330078125e+03 4.85237890625000e+03 7.11855554580688e+00 1585 
6.64553027343750e+03 4.98725488281250e+03 4.97581863403320e+00 1586 
4.82062597656250e+03 4.73826220703125e+03 4.45876216888428e+00 1587 
6.98592773437500e+03 5.11767285156250e+03 6.77356767654419e+00 1588 
8.40829223632812e+02 6.49016406250000e+03 7.12405157089233e+00 1589 
1.58749975585938e+03 1.17755195312500e+04 8.60711193084717e+00 1590 
