ply
format ascii 1.0
element vertex 702
property double x
property double y
property double size
property short id
end_header
4.60984619140625e+03 6.30867138671875e+03 4.06283950805664e+00 342 
2.56756176757812e+03 6.05007324218750e+03 5.57522153854370e+00 343 
4.33756250000000e+03 5.99474511718750e+03 5.37156820297241e+00 344 
5.26244921875000e+03 5.75302294921875e+03 5.96148633956909e+00 345 
3.04824316406250e+03 4.75863232421875e+03 4.60260200500488e+00 347 
7.25787255859375e+03 4.53542626953125e+03 4.11925077438354e+00 348 
7.07585546875000e+03 4.39275000000000e+03 6.35384941101074e+00 349 
5.49597656250000e+03 4.10794531250000e+03 4.10805988311768e+00 350 
5.17534033203125e+03 3.72714746093750e+03 4.94886636734009e+00 351 
4.59035937500000e+03 3.68438476562500e+03 4.98372602462769e+00 352 
5.10412890625000e+03 3.23186889648438e+03 3.99754953384399e+00 353 
4.90222314453125e+03 2.15545678710938e+03 5.68296813964844e+00 354 
2.97717700195312e+03 9.07789245605469e+02 4.72190809249878e+00 355 
4.15649462890625e+03 8.96200622558594e+02 4.56845951080322e+00 356 
3.76962231445312e+03 6.65321960449219e+02 5.18750047683716e+00 357 
2.90479101562500e+03 5.43860900878906e+02 4.20291376113892e+00 358 
3.41212036132812e+03 4.07348785400391e+02 4.02618980407715e+00 359 
7.96833984375000e+03 9.38353195190430e+01 4.20988512039185e+00 361 
7.98484765625000e+03 8.30368945312500e+03 6.65547180175781e+00 362 
8.24138574218750e+03 6.18862890625000e+03 5.53398227691650e+00 363 
3.77112475585938e+03 5.71582812500000e+03 6.84107255935669e+00 364 
3.85596606445312e+03 4.86381933593750e+03 5.57269763946533e+00 365 
7.74423144531250e+03 4.72502050781250e+03 6.75738620758057e+00 366 
7.81639208984375e+03 4.01429711914062e+03 6.30158472061157e+00 367 
7.04915136718750e+03 3.59466333007812e+03 5.83847904205322e+00 368 
5.04950634765625e+03 7.40821484375000e+03 5.39432716369629e+00 369 
2.90861230468750e+03 6.97718994140625e+03 4.37451696395874e+00 370 
8.39050390625000e+03 7.26782031250000e+03 5.33922863006592e+00 371 
4.50714501953125e+03 6.98253613281250e+03 4.62211608886719e+00 372 
4.53868066406250e+03 6.89116503906250e+03 4.75340414047241e+00 373 
3.52149072265625e+03 6.17725927734375e+03 5.81651306152344e+00 374 
3.55821484375000e+03 6.15236230468750e+03 4.18917989730835e+00 375 
6.19874511718750e+03 5.36754345703125e+03 5.54789876937866e+00 376 
2.93847290039062e+03 5.01847412109375e+03 4.71779108047485e+00 377 
3.08252954101562e+03 4.61206152343750e+03 3.66469454765320e+00 379 
2.83052783203125e+03 3.91520532226562e+03 4.22156620025635e+00 380 
4.77585595703125e+03 3.84051879882812e+03 4.14488792419434e+00 381 
3.79581567382812e+03 3.74602783203125e+03 4.23511600494385e+00 382 
4.67039550781250e+03 3.70134082031250e+03 5.00458383560181e+00 383 
6.91519775390625e+03 3.30205566406250e+03 4.48297882080078e+00 384 
4.38067919921875e+03 2.83837841796875e+03 5.33420753479004e+00 385 
4.64990966796875e+03 2.48255175781250e+03 4.54006099700928e+00 387 
2.64736083984375e+03 1.56063256835938e+03 4.80051040649414e+00 388 
5.53727099609375e+03 1.68909753417969e+03 3.80192255973816e+00 389 
8.77837500000000e+03 1.80227099609375e+03 4.53682422637939e+00 390 
7.36296679687500e+03 1.47362316894531e+03 5.25313043594360e+00 391 
6.72513085937500e+03 1.15564379882812e+03 6.18722391128540e+00 392 
4.03314428710938e+03 5.06756927490234e+02 4.19597196578979e+00 394 
8.55470898437500e+03 6.06862109375000e+03 5.84034490585327e+00 395 
6.95477246093750e+03 5.61895849609375e+03 6.39301681518555e+00 396 
4.85493408203125e+03 4.91963281250000e+03 6.08438062667847e+00 397 
5.58124023437500e+03 1.57758471679688e+03 6.77303457260132e+00 398 
6.68428466796875e+03 3.28635009765625e+02 6.62945413589478e+00 399 
7.65644726562500e+03 2.12198684692383e+02 6.82708072662354e+00 400 
2.79112402343750e+03 8.05726025390625e+03 4.12612581253052e+00 402 
4.54839648437500e+03 7.68746630859375e+03 4.24242591857910e+00 403 
3.13229541015625e+03 7.07863476562500e+03 3.90041470527649e+00 405 
5.96716162109375e+03 7.26695947265625e+03 5.41737747192383e+00 406 
2.82665039062500e+03 6.98409521484375e+03 5.06954765319824e+00 407 
8.39729101562500e+03 7.25355615234375e+03 5.21168136596680e+00 408 
7.92850439453125e+03 6.97490283203125e+03 3.99413824081421e+00 409 
5.72302685546875e+03 5.94596533203125e+03 3.86507797241211e+00 410 
5.77330322265625e+03 5.88485937500000e+03 4.16442346572876e+00 411 
3.35126757812500e+03 4.65889501953125e+03 4.11220693588257e+00 413 
3.19853540039062e+03 3.90321801757812e+03 4.96684122085571e+00 414 
5.94531298828125e+03 3.98627416992188e+03 4.36660432815552e+00 415 
8.73537011718750e+03 3.30509326171875e+03 5.00037908554077e+00 417 
6.77735986328125e+03 2.98823461914062e+03 3.76607728004456e+00 418 
6.71726025390625e+03 2.98395385742188e+03 3.76102352142334e+00 419 
6.47497363281250e+03 2.83410913085938e+03 5.09495687484741e+00 420 
5.42460791015625e+03 2.21214868164062e+03 3.90311479568481e+00 421 
7.51825146484375e+03 2.28602246093750e+03 4.97193479537964e+00 422 
8.72524414062500e+03 1.97315820312500e+03 5.08497142791748e+00 423 
7.59498046875000e+03 1.57577099609375e+03 4.82366228103638e+00 424 
4.96085595703125e+03 1.28783129882812e+03 3.61333322525024e+00 426 
7.39954882812500e+03 1.34277465820312e+03 4.89011621475220e+00 427 
4.12228515625000e+03 8.15299499511719e+02 4.01874971389771e+00 429 
3.56857568359375e+03 7.21998535156250e+02 4.07241106033325e+00 430 
7.37111962890625e+03 6.22805786132812e+02 3.99089622497559e+00 431 
4.93901220703125e+03 1.23445594787598e+02 5.15776968002319e+00 432 
7.91595800781250e+03 1.10298141479492e+02 3.74857854843140e+00 433 
6.90688964843750e+03 6.87578906250000e+03 4.75964784622192e+00 434 
8.13095263671875e+03 6.76751953125000e+03 3.69663000106812e+00 435 
5.29864941406250e+03 5.69522460937500e+03 3.96164274215698e+00 436 
4.92445214843750e+03 4.95891259765625e+03 5.76358604431152e+00 437 
5.62431640625000e+03 4.24918798828125e+03 4.20116853713989e+00 438 
4.25476269531250e+03 3.28842358398438e+03 4.25914382934570e+00 439 
8.18240722656250e+03 1.34853930664062e+03 5.62718296051025e+00 442 
2.66091845703125e+03 9.35286865234375e+02 4.55577993392944e+00 443 
3.92971362304688e+03 9.33023010253906e+02 4.29821538925171e+00 444 
5.80526855468750e+03 1.04646557617188e+03 3.87277126312256e+00 445 
4.05100439453125e+03 9.11105468750000e+02 5.08848714828491e+00 446 
3.87837890625000e+03 8.97782653808594e+02 4.58052015304565e+00 447 
7.75476220703125e+03 9.88534484863281e+02 4.38165283203125e+00 448 
3.74307543945312e+03 4.92778167724609e+02 4.47214412689209e+00 449 
4.69249072265625e+03 1.10026695251465e+02 4.50093507766724e+00 451 
4.95415380859375e+03 1.11963920593262e+02 4.74106121063232e+00 452 
5.28875195312500e+03 5.77463818359375e+03 6.33247041702271e+00 454 
8.42732617187500e+03 1.67027966308594e+03 6.34366989135742e+00 455 
6.57768066406250e+03 1.31383056640625e+03 6.08548736572266e+00 456 
7.34816992187500e+03 1.33045495605469e+03 6.80446767807007e+00 457 
2.65577392578125e+03 8.03982617187500e+03 3.90021681785583e+00 458 
6.73869238281250e+03 8.15795507812500e+03 4.49060821533203e+00 459 
5.51463916015625e+03 8.06835351562500e+03 4.84835004806519e+00 460 
4.53268115234375e+03 7.68132714843750e+03 4.37955904006958e+00 461 
5.59130419921875e+03 7.29371875000000e+03 5.79139852523804e+00 462 
5.43425048828125e+03 7.18999755859375e+03 6.07025527954102e+00 463 
5.75807470703125e+03 6.40856347656250e+03 4.39596414566040e+00 465 
3.96305395507812e+03 6.23450048828125e+03 4.50965261459351e+00 466 
5.73046972656250e+03 5.92728417968750e+03 4.30434703826904e+00 467 
6.28042578125000e+03 5.22888085937500e+03 4.69877433776855e+00 469 
3.64306176757812e+03 4.99169482421875e+03 4.36412382125854e+00 470 
4.93844238281250e+03 4.88636328125000e+03 5.58751344680786e+00 471 
4.66598046875000e+03 4.62102783203125e+03 5.12761020660400e+00 472 
6.44411474609375e+03 4.72569140625000e+03 3.90448451042175e+00 473 
5.86027734375000e+03 4.09897753906250e+03 4.15323972702026e+00 474 
5.54296289062500e+03 2.93088427734375e+03 4.75679016113281e+00 475 
6.48064111328125e+03 2.82063452148438e+03 5.21781110763550e+00 476 
4.52035302734375e+03 2.74326757812500e+03 3.85164952278137e+00 477 
3.29189916992188e+03 2.11662133789062e+03 4.38282108306885e+00 478 
8.34634960937500e+03 1.37791064453125e+03 4.75300407409668e+00 479 
3.60911328125000e+03 4.66184082031250e+02 5.19793272018433e+00 480 
6.10487792968750e+03 2.06921249389648e+02 1.63561553955078e+01 483 
7.36699707031250e+03 5.98459570312500e+03 1.87284755706787e+01 484 
7.70024072265625e+03 2.04648388671875e+03 2.20491466522217e+01 485 
7.72853369140625e+03 3.38558984375000e+03 2.76407032012939e+01 486 
1.78422317504883e+02 6.55881445312500e+03 6.32411479949951e+00 488 
6.30879345703125e+03 8.23608593750000e+03 5.44653272628784e+00 489 
8.50628234863281e+02 7.67489892578125e+03 4.13517522811890e+00 490 
4.07184753417969e+02 7.37671679687500e+03 4.22493362426758e+00 491 
1.29231613159180e+02 7.40671337890625e+03 4.12983083724976e+00 492 
4.60246972656250e+03 7.45651953125000e+03 3.93761301040649e+00 493 
8.34164746093750e+03 7.42963525390625e+03 3.71530675888062e+00 494 
7.72810156250000e+03 7.35750830078125e+03 4.00024700164795e+00 495 
1.95558801269531e+03 6.71935888671875e+03 5.14061880111694e+00 496 
1.05814605712891e+02 6.56567578125000e+03 4.45346117019653e+00 497 
1.35415319824219e+03 6.41230126953125e+03 4.78783702850342e+00 498 
1.36185498046875e+03 6.35549169921875e+03 4.00193548202515e+00 499 
3.35802099609375e+03 4.83452832031250e+03 3.88854479789734e+00 500 
5.12118066406250e+03 4.94103222656250e+03 3.86583399772644e+00 501 
8.38480712890625e+02 3.60899023437500e+03 4.37493658065796e+00 502 
3.03472265625000e+03 3.37272070312500e+03 3.72236943244934e+00 503 
6.04633251953125e+03 3.43942675781250e+03 3.87167763710022e+00 504 
1.17233422851562e+03 5.36636230468750e+02 4.86160755157471e+00 505 
1.61689135742188e+03 7.87111523437500e+03 5.56703615188599e+00 506 
4.40623828125000e+03 5.02625927734375e+03 6.66535234451294e+00 507 
2.16967968750000e+03 3.05488867187500e+03 6.11017417907715e+00 508 
7.56030322265625e+03 2.16864471435547e+02 5.00912857055664e+00 509 
1.15628637695312e+03 7.70542968750000e+03 5.33591413497925e+00 510 
5.20941101074219e+02 7.56679052734375e+03 4.35991239547729e+00 511 
8.45289355468750e+03 8.15747216796875e+03 3.62349081039429e+00 512 
1.30784408569336e+02 7.39749853515625e+03 4.32348728179932e+00 513 
2.83626879882812e+03 7.31360644531250e+03 3.56560778617859e+00 514 
7.83063330078125e+03 7.25317626953125e+03 3.86578321456909e+00 515 
7.41878173828125e+03 5.66836865234375e+03 7.86984109878540e+00 516 
2.86462622070312e+03 4.64953417968750e+03 7.63667488098145e+00 517 
7.10799658203125e+03 4.51199804687500e+03 9.03214454650879e+00 518 
5.48140478515625e+03 1.60412609863281e+03 7.75111198425293e+00 519 
8.05325830078125e+03 6.09370800781250e+03 8.93674755096436e+00 520 
7.39267724609375e+03 5.65392041015625e+03 8.24246883392334e+00 521 
5.98643455505371e+01 7.50057714843750e+03 6.51179504394531e+00 522 
5.45831250000000e+03 6.00445312500000e+03 4.97638845443726e+00 523 
6.71138061523438e+02 7.01631494140625e+03 4.46324920654297e+00 524 
2.06503051757812e+03 6.12056640625000e+03 3.69591569900513e+00 525 
9.15768920898438e+02 5.91604687500000e+03 3.95037746429443e+00 526 
8.00655810546875e+03 6.32841308593750e+03 4.79075813293457e+00 527 
7.76553649902344e+02 4.60287011718750e+03 4.05420780181885e+00 528 
2.53344555664062e+03 4.41680175781250e+03 4.28155088424683e+00 529 
1.62462939453125e+03 4.21018554687500e+03 4.18535375595093e+00 530 
1.16704797363281e+03 3.57273071289062e+03 4.63998317718506e+00 531 
6.33228808593750e+03 3.26730078125000e+03 5.42755746841431e+00 532 
4.61595520019531e+02 2.81618579101562e+03 4.63200473785400e+00 533 
7.04684509277344e+02 2.49073925781250e+03 4.23660993576050e+00 534 
2.26051416015625e+03 2.53975976562500e+03 3.83396315574646e+00 535 
6.05149902343750e+02 1.17030212402344e+03 4.42835617065430e+00 536 
5.06466766357422e+02 1.10461901855469e+03 3.78973841667175e+00 537 
1.97108984375000e+03 8.57385131835938e+02 5.23602914810181e+00 538 
2.50283984375000e+03 7.71024658203125e+02 3.82007861137390e+00 539 
1.52368798828125e+03 2.43337234497070e+02 3.75606799125671e+00 540 
1.98649401855469e+03 6.32202587890625e+03 4.92915391921997e+00 541 
2.57475146484375e+03 6.06675585937500e+03 6.11428499221802e+00 542 
8.34723535156250e+03 5.96736132812500e+03 6.73894882202148e+00 543 
1.84883102416992e+02 7.80738818359375e+03 3.59828877449036e+00 544 
8.12368652343750e+02 7.71922753906250e+03 3.89759135246277e+00 545 
8.56397827148438e+02 7.64573193359375e+03 4.82639741897583e+00 546 
4.84673437500000e+03 7.82224414062500e+03 4.12907648086548e+00 547 
8.29305648803711e+01 7.22056201171875e+03 3.74020218849182e+00 548 
3.13277929687500e+03 6.85793994140625e+03 4.62770700454712e+00 549 
1.92203942871094e+03 6.70465869140625e+03 5.74944734573364e+00 550 
8.23549194335938e+02 6.46659960937500e+03 5.82642030715942e+00 551 
5.80593750000000e+02 6.25227490234375e+03 5.99776029586792e+00 552 
2.95710601806641e+02 5.63190429687500e+03 3.98458123207092e+00 553 
1.66003137207031e+03 4.35365136718750e+03 5.62084341049194e+00 554 
6.74629150390625e+03 4.00788671875000e+03 7.47171449661255e+00 555 
7.01789501953125e+03 6.79370422363281e+02 9.89600563049316e+00 556 
7.56907763671875e+03 3.06861962890625e+03 1.03698043823242e+01 557 
8.16683056640625e+03 5.57632568359375e+03 1.44039535522461e+01 558 
7.87473571777344e+02 4.57358447265625e+03 4.40295076370239e+00 559 
7.71307617187500e+03 4.42265722656250e+03 3.75912642478943e+00 560 
8.39293945312500e+03 4.12290820312500e+03 3.67412614822388e+00 561 
6.20602001953125e+03 3.36844262695312e+03 5.32843112945557e+00 562 
1.14915795898438e+03 2.39742797851562e+03 5.33894824981689e+00 563 
5.42639941406250e+03 2.19914306640625e+03 5.22062110900879e+00 564 
8.59565625000000e+03 2.44275024414062e+03 3.93623018264771e+00 565 
5.53376586914062e+02 1.31342883300781e+03 4.88731956481934e+00 566 
1.17189001464844e+03 1.15998864746094e+03 4.95396471023560e+00 567 
1.92762255859375e+03 6.68265820312500e+03 5.00490045547485e+00 568 
3.50998950195312e+03 6.62302441406250e+03 5.42492485046387e+00 569 
4.76403955078125e+03 6.19433105468750e+03 4.32703828811646e+00 570 
1.89620568847656e+03 5.31305566406250e+03 3.97193264961243e+00 571 
1.27659912109375e+03 4.00650073242188e+03 5.27339744567871e+00 572 
1.05908676147461e+02 3.92240307617188e+03 3.49906420707703e+00 573 
3.42068676757812e+03 3.88956860351562e+03 4.09272050857544e+00 574 
1.19130322265625e+03 3.06135498046875e+03 4.89092540740967e+00 575 
8.24712109375000e+03 3.17621679687500e+03 3.72630786895752e+00 576 
2.47170874023438e+03 2.63834838867188e+03 4.89272117614746e+00 577 
2.30982495117188e+03 2.50230419921875e+03 4.91506719589233e+00 578 
8.48944628906250e+03 8.32762207031250e+02 4.10928869247437e+00 579 
1.91396911621094e+03 2.28873809814453e+02 3.67013096809387e+00 580 
8.55576660156250e+03 6.16434997558594e+02 4.05760192871094e+00 581 
7.51397314453125e+03 2.58901885986328e+02 3.91926550865173e+00 582 
4.35845263671875e+03 5.26342529296875e+03 6.71648502349854e+00 583 
6.82513818359375e+03 7.99547509765625e+03 4.74350833892822e+00 584 
1.84368041992188e+03 7.22386523437500e+03 4.96034097671509e+00 585 
4.72600097656250e+03 7.26237255859375e+03 3.98038959503174e+00 586 
6.48493994140625e+03 6.84065820312500e+03 4.21457242965698e+00 587 
2.83209228515625e+02 5.35068554687500e+03 4.17678833007812e+00 588 
2.34319946289062e+02 4.67822216796875e+03 3.65593528747559e+00 589 
2.27022460937500e+03 4.57777441406250e+03 4.13870000839233e+00 590 
1.55883117675781e+03 4.49248925781250e+03 3.83705377578735e+00 591 
1.28527722167969e+03 3.98972802734375e+03 4.36570262908936e+00 592 
3.69638183593750e+03 3.33998095703125e+03 5.70868778228760e+00 593 
1.42433398437500e+03 1.29312347412109e+02 4.01735830307007e+00 594 
4.29235205078125e+03 1.18269414062500e+04 6.49169015884399e+00 595 
6.87934631347656e+02 4.57428857421875e+03 5.83067131042480e+00 596 
8.67412109375000e+03 4.84580859375000e+03 5.62991333007812e+00 597 
8.46099902343750e+03 2.68721972656250e+03 5.32830476760864e+00 598 
2.05380078125000e+03 9.24310485839844e+02 6.07559585571289e+00 599 
2.11115576171875e+03 8.98835083007812e+02 6.45275640487671e+00 600 
3.33811859130859e+02 7.32183935546875e+03 4.22566556930542e+00 601 
1.66860400390625e+03 7.26873876953125e+03 4.15430593490601e+00 602 
1.10972473144531e+03 6.26148437500000e+03 4.07153272628784e+00 603 
4.82565429687500e+03 6.26075683593750e+03 3.97178196907043e+00 604 
9.04506301879883e+01 5.49497167968750e+03 4.14994478225708e+00 605 
1.73001538085938e+03 5.25591748046875e+03 4.60018968582153e+00 606 
2.33915185546875e+03 5.12949072265625e+03 5.07207584381104e+00 607 
8.07711914062500e+03 5.22219287109375e+03 5.43653917312622e+00 608 
2.06935839843750e+03 4.23601123046875e+03 5.67205286026001e+00 609 
1.62668713378906e+03 3.91833496093750e+03 5.28380441665649e+00 610 
3.47231372070312e+03 3.44165454101562e+03 3.86036896705627e+00 611 
4.85238952636719e+02 2.86166162109375e+03 3.94970130920410e+00 612 
5.03874560546875e+03 3.21872534179688e+03 3.91579222679138e+00 613 
4.92303857421875e+03 3.14351733398438e+03 4.30215215682983e+00 614 
2.62534204101562e+03 2.57031347656250e+03 5.40499734878540e+00 615 
2.36800708007812e+03 2.49134790039062e+03 4.64677381515503e+00 616 
1.20891174316406e+03 8.13566711425781e+02 4.24794197082520e+00 617 
8.73937402343750e+03 4.89263092041016e+02 4.06191253662109e+00 618 
6.72166943359375e+03 2.22092208862305e+02 4.71956729888916e+00 619 
1.71892669677734e+02 6.34125634765625e+03 4.65208244323730e+00 620 
4.13436425781250e+03 6.51879785156250e+03 3.94021010398865e+00 621 
6.57253906250000e+03 6.53532128906250e+03 4.57596588134766e+00 622 
1.98691589355469e+03 5.17829541015625e+03 4.35456371307373e+00 623 
1.26160911560059e+02 4.63147314453125e+03 3.66745471954346e+00 624 
3.29402416992188e+03 2.02054357910156e+03 4.40339851379395e+00 625 
2.27031958007812e+03 1.92073437500000e+03 4.09028673171997e+00 626 
1.04730639648438e+03 1.57948535156250e+03 5.14943313598633e+00 627 
6.01802343750000e+03 9.53094848632812e+02 4.24969816207886e+00 628 
3.59891894531250e+03 4.76603790283203e+02 5.14998674392700e+00 629 
3.28927032470703e+02 7.53085498046875e+03 5.42806863784790e+00 630 
8.14266406250000e+03 7.81812988281250e+03 3.95994615554810e+00 631 
1.00861822509766e+03 7.12758837890625e+03 4.99076890945435e+00 632 
2.11391406250000e+03 6.66322460937500e+03 5.27177238464355e+00 633 
4.11821533203125e+03 6.82263867187500e+03 4.40510416030884e+00 634 
1.03131127929688e+03 6.49174853515625e+03 4.93277883529663e+00 635 
1.37753186035156e+03 6.34568457031250e+03 4.17200756072998e+00 636 
8.45276550292969e+02 5.90711376953125e+03 4.06610155105591e+00 637 
8.06301416015625e+03 6.06826367187500e+03 5.26358413696289e+00 638 
5.65148254394531e+02 4.85040429687500e+03 3.75621390342712e+00 639 
2.54077001953125e+03 4.61379248046875e+03 3.80325412750244e+00 640 
2.06465301513672e+02 3.23481274414062e+03 4.73033666610718e+00 641 
8.18076025390625e+03 3.12507812500000e+03 3.73307013511658e+00 642 
1.81446447753906e+03 2.79262695312500e+03 5.38060188293457e+00 643 
2.50048291015625e+03 2.67433837890625e+03 4.93367481231689e+00 644 
2.92198272705078e+02 2.39133056640625e+03 5.20495414733887e+00 645 
6.04864111328125e+03 2.39873950195312e+03 4.52418518066406e+00 646 
1.52270300292969e+03 1.75795751953125e+03 4.95185136795044e+00 647 
3.31332977294922e+02 1.35374755859375e+03 3.95983505249023e+00 648 
7.98605468750000e+02 1.37430847167969e+03 4.45873355865479e+00 649 
1.40288818359375e+03 1.34023547363281e+03 4.13942050933838e+00 650 
5.93529931640625e+03 9.86752685546875e+02 5.18922424316406e+00 651 
1.14128332519531e+03 4.85151763916016e+02 4.31935548782349e+00 652 
1.17226416015625e+03 7.44080517578125e+03 6.34356737136841e+00 653 
1.14320605468750e+03 5.94222656250000e+03 6.71930122375488e+00 654 
1.13082435607910e+02 4.77062109375000e+03 6.55989646911621e+00 655 
7.56399023437500e+03 4.39262500000000e+03 7.13729143142700e+00 656 
4.91482470703125e+03 2.86451269531250e+03 6.25440788269043e+00 657 
6.04958984375000e+02 4.68649291992188e+02 5.13167142868042e+00 658 
8.48878710937500e+03 8.46401000976562e+02 6.40496110916138e+00 659 
7.67288281250000e+03 1.89483825683594e+02 6.72566270828247e+00 660 
3.96205712890625e+03 8.10996630859375e+03 5.32890605926514e+00 661 
5.54535986328125e+03 7.82852001953125e+03 4.31411361694336e+00 662 
8.30352734375000e+03 7.61837158203125e+03 4.14867782592773e+00 663 
9.45615051269531e+02 6.83177392578125e+03 5.24137020111084e+00 664 
5.14522070312500e+03 7.18752636718750e+03 5.50307273864746e+00 665 
2.83013769531250e+03 6.93378466796875e+03 5.04577112197876e+00 666 
4.15826074218750e+03 7.04689941406250e+03 4.52045536041260e+00 667 
8.01808935546875e+03 6.33297509765625e+03 3.81722879409790e+00 668 
5.53080224609375e+03 5.52156054687500e+03 4.33046102523804e+00 669 
6.13755664062500e+03 5.47516601562500e+03 3.81185817718506e+00 670 
3.02601464843750e+03 4.97311523437500e+03 4.16764259338379e+00 671 
4.98824096679688e+02 3.70851220703125e+03 4.87955236434937e+00 672 
1.66590026855469e+03 3.81426000976562e+03 4.21205520629883e+00 673 
6.24255273437500e+03 3.46270214843750e+03 3.94090867042542e+00 674 
2.26475000000000e+03 2.56780859375000e+03 4.34949636459351e+00 675 
4.72693212890625e+03 2.52587426757812e+03 4.08418130874634e+00 676 
8.58411987304688e+02 2.19659912109375e+03 5.09674453735352e+00 677 
2.79914428710938e+03 1.80153857421875e+03 3.98297429084778e+00 678 
1.20250476074219e+03 1.54111596679688e+03 4.07332706451416e+00 679 
5.49150976562500e+03 1.80287048339844e+03 5.15454864501953e+00 680 
2.49067163085938e+03 1.52814709472656e+03 4.09641361236572e+00 681 
1.56883874511719e+03 1.28442150878906e+03 3.64275646209717e+00 682 
2.97490722656250e+02 9.65851867675781e+02 3.84887552261353e+00 683 
7.32902050781250e+03 1.38458544921875e+03 3.90394306182861e+00 684 
6.89829931640625e+03 1.44531127929688e+03 4.08936214447021e+00 685 
2.57196069335938e+03 6.43687438964844e+02 4.52242136001587e+00 686 
5.79665283203125e+02 1.39214279174805e+02 4.31856155395508e+00 687 
1.13652148437500e+03 9.82659179687500e+03 8.07858085632324e+00 688 
7.18591748046875e+03 4.37728076171875e+03 4.22317028045654e+00 689 
4.03463806152344e+02 9.83393096923828e+01 6.65728139877319e+00 690 
2.69724047851562e+03 7.82831005859375e+03 3.92341947555542e+00 691 
1.11769262695312e+03 7.70207080078125e+03 5.44519090652466e+00 692 
1.47898657226562e+03 7.19937500000000e+03 4.18479537963867e+00 693 
7.49711914062500e+03 7.59311572265625e+03 4.85321664810181e+00 694 
1.12798669433594e+03 5.29281152343750e+03 1.02454423904419e+01 695 
1.27956652832031e+03 3.73967626953125e+03 7.44357633590698e+00 696 
7.48513574218750e+03 2.92732958984375e+03 7.87781953811646e+00 697 
8.45926855468750e+03 1.48107757568359e+02 1.36958942413330e+01 698 
1.99939746093750e+03 6.30507373046875e+03 9.63315677642822e+00 699 
1.53552856445312e+03 5.09748828125000e+03 9.34674167633057e+00 700 
3.02078393554688e+03 4.97130664062500e+03 7.38787698745728e+00 701 
1.22172241210938e+03 3.82497680664062e+03 7.52223443984985e+00 702 
6.86250878906250e+03 4.70502197265625e+03 1.68573379516602e+01 703 
7.02913720703125e+03 3.61732739257812e+03 9.35627651214600e+00 704 
1.38160229492188e+03 5.53257177734375e+03 6.54719161987305e+00 705 
7.47678604125977e+01 4.61707128906250e+03 6.73869657516479e+00 706 
1.44126452636719e+03 3.65334741210938e+03 5.98824834823608e+00 707 
1.46249401855469e+03 2.11211938476562e+03 5.37269544601440e+00 708 
1.22884448242188e+03 2.11254565429688e+03 6.54513072967529e+00 709 
2.27342968750000e+03 1.05939953613281e+03 5.49244928359985e+00 710 
5.43339843750000e+03 7.99269091796875e+03 4.64659452438354e+00 711 
6.99704345703125e+03 7.55888037109375e+03 3.65702509880066e+00 712 
7.53304638671875e+03 7.49762011718750e+03 4.81046915054321e+00 713 
2.07641308593750e+03 6.75221679687500e+03 3.66204643249512e+00 714 
6.73721289062500e+03 6.80508789062500e+03 3.98500394821167e+00 715 
1.05923657226562e+03 6.26280273437500e+03 5.36903476715088e+00 716 
3.60008789062500e+03 6.20964453125000e+03 5.76327800750732e+00 717 
5.02924774169922e+02 5.86517285156250e+03 3.91186547279358e+00 718 
6.06206054687500e+01 5.60620947265625e+03 4.95262813568115e+00 719 
7.33914990234375e+03 5.60112158203125e+03 5.50075578689575e+00 720 
4.03446533203125e+03 5.34587646484375e+03 4.62133932113647e+00 721 
8.26043457031250e+03 5.66154785156250e+03 3.83751392364502e+00 722 
1.54994726562500e+03 4.49802929687500e+03 3.73600172996521e+00 723 
7.08106152343750e+03 4.57068359375000e+03 5.80403423309326e+00 724 
5.50802636718750e+03 4.18900732421875e+03 4.60134077072144e+00 725 
5.72803955078125e+02 3.50824536132812e+03 4.10219144821167e+00 726 
2.79055847167969e+02 3.27723535156250e+03 4.08183717727661e+00 727 
6.23554443359375e+03 3.47777441406250e+03 4.48453760147095e+00 728 
6.28993945312500e+03 2.39910424804688e+03 5.02809047698975e+00 729 
1.54344519042969e+03 3.07324169921875e+03 4.29868841171265e+00 730 
5.65926708984375e+03 3.40062670898438e+03 3.89714312553406e+00 731 
4.68721801757812e+02 2.27058911132812e+03 4.07178068161011e+00 732 
3.20329406738281e+02 2.03055541992188e+03 4.66041707992554e+00 733 
6.03953662109375e+03 2.32712084960938e+03 4.39720296859741e+00 734 
2.11482690429688e+03 1.68678833007812e+03 3.96128368377686e+00 735 
4.11934179687500e+03 1.16324255371094e+03 4.62841558456421e+00 736 
6.37808740234375e+03 8.83409240722656e+02 4.28884458541870e+00 737 
2.37108666992188e+03 4.15819335937500e+02 4.22006702423096e+00 738 
2.13243334960938e+03 4.00135681152344e+02 4.14054393768311e+00 739 
6.66291699218750e+03 2.95516937255859e+02 4.11328840255737e+00 740 
2.01562902832031e+03 5.73650634765625e+03 6.88132047653198e+00 741 
5.56864648437500e+03 4.98695947265625e+03 6.38722515106201e+00 742 
2.41194506835938e+03 3.29498071289062e+03 4.47330379486084e+00 743 
1.22846252441406e+03 2.19038623046875e+03 6.39522361755371e+00 744 
1.15804528808594e+03 5.28262695312500e+02 6.43350648880005e+00 745 
4.73663269042969e+02 7.53866113281250e+03 4.12476348876953e+00 746 
2.23194433593750e+03 7.39612353515625e+03 4.03448534011841e+00 747 
5.43001342773438e+02 6.63275488281250e+03 4.85814762115479e+00 748 
2.19622778320312e+03 6.57389550781250e+03 3.83146405220032e+00 749 
1.04274291992188e+03 6.31053662109375e+03 4.40267562866211e+00 750 
1.42592163085938e+03 6.27751416015625e+03 3.44147396087646e+00 751 
3.88535180664062e+03 6.11065820312500e+03 3.64462113380432e+00 752 
1.74222640991211e+02 5.78415966796875e+03 4.34828138351440e+00 753 
7.23650054931641e+01 5.51932031250000e+03 4.83442354202271e+00 754 
6.57568847656250e+03 5.80462158203125e+03 4.62742185592651e+00 755 
2.00118408203125e+03 6.31011914062500e+03 8.51582717895508e+00 756 
7.30337890625000e+03 6.24849462890625e+03 6.41789293289185e+00 757 
7.11209570312500e+03 1.93436694335938e+03 1.03977060317993e+01 758 
7.01315039062500e+03 1.92714465332031e+03 9.37889957427979e+00 759 
3.86804956054688e+03 7.95252050781250e+03 8.36767864227295e+00 760 
1.25285302734375e+03 5.33461279296875e+03 1.19552001953125e+01 761 
5.63244079589844e+02 5.19560607910156e+02 7.25652217864990e+00 762 
7.14190283203125e+03 6.18051904296875e+03 9.83327102661133e+00 763 
7.45719970703125e+03 2.17942602539062e+03 7.41638326644897e+00 764 
1.24478649902344e+03 4.96260302734375e+03 4.32081222534180e+00 765 
5.48161572265625e+03 5.20902343750000e+03 5.20671129226685e+00 766 
8.64552368164062e+02 4.87195800781250e+03 4.20141267776489e+00 767 
7.06374450683594e+02 4.62109912109375e+03 3.96821832656860e+00 768 
1.84367370605469e+03 4.38841357421875e+03 5.15074300765991e+00 769 
2.19361767578125e+03 3.50447680664062e+03 3.84425258636475e+00 770 
3.54713061523438e+03 3.46302050781250e+03 4.48570251464844e+00 771 
1.82116406250000e+03 3.12569921875000e+03 5.77727079391479e+00 772 
4.71087890625000e+03 2.80202075195312e+03 5.24130201339722e+00 773 
6.41293945312500e+02 2.15650683593750e+03 4.91190528869629e+00 774 
4.15325976562500e+03 2.28071850585938e+03 5.04174280166626e+00 775 
6.63447070312500e+03 2.49161230468750e+03 3.72675228118896e+00 776 
1.22642749023438e+03 1.12624304199219e+03 5.15932416915894e+00 777 
4.12489111328125e+03 8.41818359375000e+02 4.44120359420776e+00 778 
8.52985156250000e+03 8.57104553222656e+02 5.45048475265503e+00 779 
6.66215087890625e+03 6.48386657714844e+02 5.60814237594604e+00 780 
6.20991845703125e+03 5.49396301269531e+02 4.37508773803711e+00 781 
1.69941430664062e+03 7.96733093261719e+01 4.03620290756226e+00 782 
5.58130175781250e+03 3.23302246093750e+02 4.88268327713013e+00 783 
8.14751281738281e+02 7.81245507812500e+03 5.17831373214722e+00 784 
1.53746200561523e+02 6.63997314453125e+03 6.52806663513184e+00 785 
2.12662451171875e+03 5.26806445312500e+03 5.81300878524780e+00 786 
2.18147680664062e+03 8.61603759765625e+02 6.12935590744019e+00 787 
4.31447296142578e+02 7.51229931640625e+03 5.16734933853149e+00 788 
3.68816955566406e+02 7.49994384765625e+03 4.78444051742554e+00 789 
1.83395581054688e+03 7.17338378906250e+03 4.07873868942261e+00 790 
1.98816064453125e+03 6.51780712890625e+03 4.05477857589722e+00 792 
7.80550903320312e+02 6.45850292968750e+03 5.50953769683838e+00 793 
6.94989794921875e+03 6.30477441406250e+03 4.13533353805542e+00 794 
4.85436230468750e+03 5.97651708984375e+03 3.79510307312012e+00 795 
1.96299377441406e+02 5.25043310546875e+03 4.80302858352661e+00 796 
5.34821337890625e+03 5.39252343750000e+03 4.11849641799927e+00 797 
7.86094360351562e+01 4.29322119140625e+03 3.72369217872620e+00 798 
2.21344750976562e+03 3.49234936523438e+03 3.70166969299316e+00 799 
3.82320288085938e+03 3.52476904296875e+03 3.72241115570068e+00 800 
2.75269470214844e+02 2.94550244140625e+03 4.24952411651611e+00 801 
1.51126428222656e+03 2.94292285156250e+03 4.01724100112915e+00 802 
6.75863134765625e+03 3.19447631835938e+03 3.61768865585327e+00 803 
3.75504663085938e+03 2.99563159179688e+03 5.66398620605469e+00 804 
2.08139526367188e+02 2.12787060546875e+03 4.62481975555420e+00 805 
1.65967517089844e+03 2.16451342773438e+03 4.17384958267212e+00 806 
7.58980224609375e+03 2.20418041992188e+03 4.52010154724121e+00 807 
2.07953076171875e+03 1.74049084472656e+03 4.09148454666138e+00 808 
2.12830493164062e+03 1.67629992675781e+03 3.65712714195251e+00 809 
2.05527587890625e+03 1.61031750488281e+03 4.04525470733643e+00 810 
8.07787695312500e+03 1.74434387207031e+03 3.73898124694824e+00 811 
1.22085827636719e+03 1.03027697753906e+03 3.70040440559387e+00 812 
1.22666418457031e+03 9.98026672363281e+02 4.85076904296875e+00 813 
2.58083300781250e+03 8.12934448242188e+02 4.63225364685059e+00 814 
2.53674804687500e+03 7.48200378417969e+02 3.69037222862244e+00 815 
1.19127807617188e+03 6.12335693359375e+02 4.70890378952026e+00 816 
7.43032714843750e+03 5.43359680175781e+02 4.00754547119141e+00 817 
6.37365234375000e+02 7.04096972656250e+03 5.41601753234863e+00 818 
1.37455151367188e+03 4.73012744140625e+03 6.51929998397827e+00 819 
5.49002490234375e+03 4.93941064453125e+03 6.11365079879761e+00 820 
2.14403710937500e+03 7.44611572265625e+03 4.08081483840942e+00 821 
1.04389758300781e+03 6.48995703125000e+03 4.69706296920776e+00 822 
1.64732775878906e+03 6.16396093750000e+03 4.20424985885620e+00 823 
2.92950488281250e+03 6.09599023437500e+03 5.39737701416016e+00 824 
2.55940063476562e+03 6.07623291015625e+03 5.40559864044189e+00 825 
6.70613159179688e+02 5.69629882812500e+03 3.74926567077637e+00 826 
9.20564727783203e+01 5.52664355468750e+03 4.96770811080933e+00 827 
2.08058642578125e+03 5.58832226562500e+03 5.19411945343018e+00 828 
5.59623388671875e+03 5.54726464843750e+03 5.56064224243164e+00 829 
4.12093457031250e+03 4.92749316406250e+03 4.20038747787476e+00 830 
7.08692749023438e+02 4.54925048828125e+03 4.81054449081421e+00 831 
6.40301513671875e+03 4.93175146484375e+03 4.14135694503784e+00 832 
6.41762939453125e+03 4.89696533203125e+03 4.42647600173950e+00 833 
1.29609118652344e+03 3.99083740234375e+03 4.81309270858765e+00 834 
9.50658081054688e+02 3.83017163085938e+03 5.13997888565063e+00 835 
2.70694946289062e+03 3.89617968750000e+03 4.80862236022949e+00 836 
1.52246887207031e+03 3.74472241210938e+03 4.41160631179810e+00 837 
6.54539428710938e+02 3.65062353515625e+03 4.77847003936768e+00 838 
8.26366455078125e+02 2.66259326171875e+03 4.96887397766113e+00 839 
2.35814062500000e+03 2.49727636718750e+03 4.58160877227783e+00 840 
5.19465759277344e+02 2.04041894531250e+03 4.09498548507690e+00 841 
6.04975732421875e+03 2.41405395507812e+03 5.37811136245728e+00 842 
6.39629150390625e+03 2.31514404296875e+03 4.72344350814819e+00 843 
2.60398999023438e+03 1.78982775878906e+03 3.82263946533203e+00 844 
1.34465832519531e+03 1.39696252441406e+03 4.43068695068359e+00 845 
1.46525805664062e+03 1.16681848144531e+03 3.99242091178894e+00 846 
5.44844665527344e+02 5.42961364746094e+02 4.03336191177368e+00 847 
6.01161328125000e+03 8.43724731445312e+02 3.50857591629028e+00 848 
8.75052124023438e+02 6.70468978881836e+01 3.92049121856689e+00 849 
2.49952709960938e+03 9.13199691772461e+01 4.17347002029419e+00 850 
6.04131250000000e+03 8.06220751953125e+03 5.46722984313965e+00 851 
7.71734130859375e+02 4.68357812500000e+03 6.08875513076782e+00 852 
4.16738378906250e+03 7.96803808593750e+03 4.28975534439087e+00 853 
1.88733300781250e+03 7.62686376953125e+03 3.95024967193604e+00 854 
5.96635971069336e+01 7.35497412109375e+03 3.79838156700134e+00 855 
2.75547802734375e+03 7.35712011718750e+03 4.07893085479736e+00 856 
1.84894714355469e+03 7.21195849609375e+03 3.85259652137756e+00 857 
2.42303686523438e+03 6.36189062500000e+03 3.93845748901367e+00 858 
1.37667443847656e+03 6.18105566406250e+03 4.15921115875244e+00 859 
2.93916284179688e+03 6.06886718750000e+03 5.55968141555786e+00 860 
1.64176708984375e+03 4.94629541015625e+03 4.47281742095947e+00 861 
8.46361160278320e+01 4.75943505859375e+03 4.97776985168457e+00 862 
2.99710546875000e+03 4.89485742187500e+03 4.37412214279175e+00 863 
8.08896191406250e+03 5.19163085937500e+03 4.23939561843872e+00 864 
8.04210742187500e+03 5.15263867187500e+03 6.85074281692505e+00 865 
2.19458886718750e+03 4.66816943359375e+03 4.31811714172363e+00 866 
1.23599560546875e+03 2.60588940429688e+03 5.43724632263184e+00 867 
1.32543652343750e+03 2.49888769531250e+03 4.19079542160034e+00 868 
3.92699401855469e+02 2.05175903320312e+03 4.14676666259766e+00 869 
3.42244262695312e+03 9.26192810058594e+02 4.29045820236206e+00 870 
2.57824877929688e+03 7.95453430175781e+02 4.26523351669312e+00 871 
2.02446203613281e+03 3.99836029052734e+02 4.15738964080811e+00 872 
1.58847244262695e+02 6.34111083984375e+03 3.92606115341187e+00 873 
3.90969268798828e+02 6.19188476562500e+03 4.62264585494995e+00 874 
2.95882031250000e+03 6.01161621093750e+03 5.51610994338989e+00 875 
2.83591333007812e+03 5.81751269531250e+03 3.59713864326477e+00 876 
8.51460266113281e+02 5.43693896484375e+03 4.46291112899780e+00 877 
3.80900976562500e+03 5.44300097656250e+03 5.39236259460449e+00 878 
4.47672149658203e+02 5.18513427734375e+03 5.61502599716187e+00 879 
4.03068017578125e+03 5.36102783203125e+03 4.96415472030640e+00 880 
1.99016284179688e+03 5.20478808593750e+03 5.17254257202148e+00 881 
4.57293896484375e+03 5.33049218750000e+03 3.72144985198975e+00 882 
2.32641308593750e+03 5.11962841796875e+03 4.34486484527588e+00 883 
6.76729980468750e+02 4.57754003906250e+03 4.51272869110107e+00 884 
1.84206018066406e+03 4.34268310546875e+03 5.20212221145630e+00 885 
7.43458984375000e+03 4.64632568359375e+03 4.39103984832764e+00 886 
4.65047668457031e+02 3.72535791015625e+03 4.89818048477173e+00 887 
5.71720825195312e+02 3.66789160156250e+03 5.26578330993652e+00 888 
6.56959716796875e+03 4.12327929687500e+03 4.68486833572388e+00 889 
7.96616455078125e+03 4.23839257812500e+03 3.72534155845642e+00 890 
8.62353149414062e+02 3.20237109375000e+03 4.09993362426758e+00 891 
4.10118652343750e+03 3.37982934570312e+03 4.45337629318237e+00 892 
5.07927636718750e+03 3.34818408203125e+03 4.94240951538086e+00 893 
4.34108056640625e+03 2.83828271484375e+03 4.15436697006226e+00 894 
6.36005957031250e+03 2.37697973632812e+03 4.71010017395020e+00 895 
4.03501904296875e+03 1.96656091308594e+03 5.99187231063843e+00 896 
6.48715332031250e+03 2.09792114257812e+03 4.33705902099609e+00 897 
2.07030395507812e+03 1.69312109375000e+03 4.10451507568359e+00 898 
1.19147302246094e+03 1.47663366699219e+03 4.04113817214966e+00 899 
8.17857666015625e+03 2.00599792480469e+03 4.82343101501465e+00 900 
6.88467285156250e+03 1.46538928222656e+03 4.58517599105835e+00 901 
2.08849145507812e+03 1.06837959289551e+02 3.88860797882080e+00 902 
2.05353100585938e+03 6.56805496215820e+01 4.34360599517822e+00 903 
7.96259912109375e+03 4.00912567138672e+02 4.95578813552856e+00 904 
2.03018347167969e+03 5.69528613281250e+03 6.71061420440674e+00 905 
7.05622460937500e+03 3.56975537109375e+03 6.28574323654175e+00 906 
1.22075085449219e+03 2.08889477539062e+03 6.44512319564819e+00 907 
6.48262597656250e+03 3.29730987548828e+02 6.37053585052490e+00 909 
5.41858789062500e+03 8.02714013671875e+03 4.37079000473022e+00 910 
6.01096337890625e+03 6.95071435546875e+03 5.15822744369507e+00 911 
1.04045983886719e+03 6.51867919921875e+03 4.52517223358154e+00 912 
2.17489819335938e+03 6.58719628906250e+03 3.80988669395447e+00 913 
7.17987402343750e+03 6.80689941406250e+03 3.65932917594910e+00 914 
3.70054901123047e+02 6.23852148437500e+03 4.13390350341797e+00 915 
5.52697900390625e+03 6.20501708984375e+03 3.93297123908997e+00 916 
8.23425109863281e+02 5.66843066406250e+03 4.72410535812378e+00 917 
8.68047558593750e+03 6.07143994140625e+03 3.86473226547241e+00 918 
2.01441784667969e+03 4.89548144531250e+03 5.62397527694702e+00 920 
1.45044812011719e+03 4.67993261718750e+03 3.90058255195618e+00 922 
1.69450451660156e+03 3.91519042968750e+03 4.81834888458252e+00 923 
4.31292205810547e+02 3.74284692382812e+03 4.65180110931396e+00 924 
7.52579199218750e+03 4.09691992187500e+03 3.65565133094788e+00 925 
1.13773535156250e+03 3.05816552734375e+03 4.07523107528687e+00 926 
1.80915405273438e+03 2.56535791015625e+03 3.87352204322815e+00 927 
1.11446350097656e+03 2.41437231445312e+03 5.04115390777588e+00 928 
6.29141455078125e+03 2.45769116210938e+03 5.07091760635376e+00 929 
6.34828662109375e+03 2.39537915039062e+03 3.90198564529419e+00 930 
3.12608691406250e+03 1.96322338867188e+03 3.64416241645813e+00 931 
2.76727392578125e+03 1.88639599609375e+03 4.10256624221802e+00 932 
2.88685058593750e+02 1.51647631835938e+03 4.82647228240967e+00 933 
2.20769302368164e+02 1.39382922363281e+03 4.05139541625977e+00 934 
8.80107226562500e+03 1.75312194824219e+03 3.92917490005493e+00 935 
8.16191113281250e+03 1.16443347167969e+03 4.55679655075073e+00 936 
2.51405834960938e+03 7.48984313964844e+02 3.79666066169739e+00 937 
2.14237207031250e+03 6.28542671203613e+01 4.24804258346558e+00 938 
7.60401855468750e+03 1.95195153808594e+03 1.32779893875122e+01 939 
3.39782373046875e+03 7.94587646484375e+03 5.58735752105713e+00 940 
2.36460180664062e+03 7.61893212890625e+03 4.51074743270874e+00 941 
1.96600830078125e+03 7.55465966796875e+03 4.64750003814697e+00 942 
5.34295214843750e+03 6.24706494140625e+03 4.26323461532593e+00 944 
5.53681494140625e+03 2.41609326171875e+03 4.75923967361450e+00 945 
1.46945239257812e+03 7.46897998046875e+03 3.82880616188049e+00 946 
6.10257666015625e+03 2.96257519531250e+03 6.35571002960205e+00 947 
9.31898864746094e+02 1.92302270507812e+03 4.12056446075439e+00 949 
2.17194213867188e+03 8.72191711425781e+02 5.31593751907349e+00 950 
3.50299682617188e+03 6.50921777343750e+03 4.92127513885498e+00 951 
4.12327832031250e+03 6.23401527404785e+01 3.77111244201660e+00 953 
1.73273852539062e+03 6.51970068359375e+03 4.79960298538208e+00 957 
4.10068017578125e+03 2.71766918945312e+03 4.81491327285767e+00 961 
2.43779614257812e+03 7.89544042968750e+03 4.20127487182617e+00 963 
4.08707495117188e+03 6.89565722656250e+03 5.35380792617798e+00 965 
9.06591735839844e+02 2.37834155273438e+03 4.03208208084106e+00 966 
4.62988330078125e+03 9.44275634765625e+02 4.26419925689697e+00 967 
1.78787341308594e+03 1.02753015136719e+03 3.94172120094299e+00 969 
3.85001904296875e+03 4.87476953125000e+03 4.71575117111206e+00 971 
1.70447143554688e+03 3.34792041015625e+03 4.39427709579468e+00 973 
3.03467749023438e+03 3.34540625000000e+03 4.16984701156616e+00 974 
1.60321520996094e+03 3.80076385498047e+02 4.03996324539185e+00 975 
2.81257080078125e+03 6.43228027343750e+03 5.49983358383179e+00 976 
5.05460937500000e+02 3.56238330078125e+03 3.76447892189026e+00 978 
4.47363281250000e+03 6.02801611328125e+03 6.53428840637207e+00 980 
2.73255322265625e+03 7.66780761718750e+03 5.36801385879517e+00 981 
5.99609716796875e+03 6.98711083984375e+03 5.01784944534302e+00 982 
5.57909570312500e+03 4.94834423828125e+03 5.20381212234497e+00 984 
6.25304687500000e+02 2.45331103515625e+03 3.92646622657776e+00 985 
4.09135913085938e+03 1.20000781250000e+03 4.39923429489136e+00 986 
2.33344726562500e+03 7.58109179687500e+03 4.35115337371826e+00 989 
2.31593383789062e+03 7.08494042968750e+03 4.03760051727295e+00 990 
4.95296289062500e+03 5.34368066406250e+03 5.51794242858887e+00 991 
5.87395800781250e+03 7.27513232421875e+03 6.18026733398438e+00 992 
4.71430114746094e+02 6.85529345703125e+03 4.06071329116821e+00 994 
1.78375231933594e+03 3.39019287109375e+03 5.14169025421143e+00 996 
2.20571792602539e+02 7.73309423828125e+03 7.03890609741211e+00 997 
3.04839331054688e+03 7.22899560546875e+03 3.89186930656433e+00 998 
4.94161328125000e+03 5.20357812500000e+03 5.45226049423218e+00 999 
9.12308898925781e+02 1.66927343750000e+03 4.28796005249023e+00 1000 
5.63611230468750e+03 4.58043994140625e+03 6.40242433547974e+00 1001 
5.99670312500000e+03 7.38277490234375e+03 4.27300310134888e+00 1003 
1.88282763671875e+03 4.01175195312500e+03 4.59641218185425e+00 1004 
2.50292529296875e+03 7.59753234863281e+02 3.59571313858032e+00 1005 
6.56070404052734e+01 5.25432470703125e+03 5.84803485870361e+00 1007 
5.13640771484375e+03 5.50471289062500e+03 4.18531990051270e+00 1008 
2.56912329101562e+03 3.82443530273438e+03 5.67686748504639e+00 1010 
1.40792346191406e+03 1.33088684082031e+03 3.94864630699158e+00 1011 
5.34245458984375e+03 6.27937353515625e+03 5.14517116546631e+00 1013 
2.30951147460938e+03 5.14552392578125e+03 4.63216590881348e+00 1015 
1.22978874206543e+02 4.74988037109375e+03 4.71448898315430e+00 1016 
1.43176123046875e+03 2.91146533203125e+03 4.54270029067993e+00 1017 
1.56798913574219e+03 1.19968017578125e+02 5.00441122055054e+00 1018 
7.17695849609375e+03 8.32542968750000e+03 4.64752054214478e+00 1019 
7.13209912109375e+03 7.01560351562500e+03 4.13216543197632e+00 1021 
7.91377978515625e+03 7.06202539062500e+03 3.65852618217468e+00 1025 
6.69009619140625e+03 6.26874511718750e+03 6.93352317810059e+00 1027 
8.26989160156250e+03 8.46062792968750e+03 3.80825066566467e+00 1030 
6.44009472656250e+03 8.66058398437500e+03 4.21795606613159e+00 1031 
4.09844677734375e+03 8.74822265625000e+03 5.03553104400635e+00 1032 
4.45966552734375e+03 9.04545214843750e+03 4.83979320526123e+00 1033 
4.44208447265625e+03 9.62701171875000e+03 4.11577081680298e+00 1034 
6.02450341796875e+03 9.82589355468750e+03 4.67029190063477e+00 1035 
3.31213183593750e+03 9.85444433593750e+03 5.17237854003906e+00 1036 
3.06157739257812e+03 1.04888212890625e+04 4.09461307525635e+00 1037 
2.34088061523438e+03 1.08088642578125e+04 4.33648920059204e+00 1038 
8.50558886718750e+03 1.15404902343750e+04 3.83164477348328e+00 1039 
3.78026245117188e+03 1.15247792968750e+04 4.83980464935303e+00 1040 
3.61840893554688e+03 1.18657324218750e+04 4.60569381713867e+00 1041 
3.18931323242188e+03 1.24102958984375e+04 4.15473890304565e+00 1042 
3.64268579101562e+03 1.25505976562500e+04 4.48724079132080e+00 1043 
8.52731250000000e+03 5.29026171875000e+03 6.97720670700073e+00 1044 
4.95472851562500e+03 1.24484814453125e+04 6.24399709701538e+00 1045 
5.98050341796875e+03 5.26478613281250e+03 3.66855549812317e+00 1046 
6.16995410156250e+03 5.46656982421875e+03 3.88260722160339e+00 1047 
4.65073779296875e+03 6.10323339843750e+03 4.40305614471436e+00 1048 
5.14001025390625e+03 7.19961181640625e+03 3.79366898536682e+00 1049 
2.47165747070312e+03 8.15752880859375e+03 4.16378831863403e+00 1050 
5.37768115234375e+03 8.57641601562500e+03 4.66908740997314e+00 1051 
2.95924414062500e+03 8.52965332031250e+03 4.82740831375122e+00 1052 
5.76357763671875e+03 8.94209179687500e+03 4.12311363220215e+00 1053 
5.77474414062500e+03 8.97211718750000e+03 4.85738372802734e+00 1054 
7.68178808593750e+03 9.06432910156250e+03 3.74271583557129e+00 1055 
4.42399218750000e+03 9.02887011718750e+03 4.05668258666992e+00 1056 
7.60846679687500e+03 6.27171142578125e+03 2.48029670715332e+01 1057 
6.94450732421875e+03 1.26956718750000e+04 2.43344135284424e+01 1058 
6.78176318359375e+03 9.26203906250000e+03 3.87887334823608e+00 1059 
7.29550488281250e+03 9.27447851562500e+03 5.73465824127197e+00 1060 
4.29813623046875e+03 9.31180957031250e+03 4.21560049057007e+00 1061 
2.99052392578125e+03 1.06435693359375e+04 4.17041206359863e+00 1062 
6.58206445312500e+03 1.07868134765625e+04 3.89865827560425e+00 1063 
2.41661694335938e+03 1.08203105468750e+04 4.92572164535522e+00 1064 
4.92361279296875e+03 1.11649628906250e+04 4.39794635772705e+00 1065 
6.03542675781250e+03 1.15776113281250e+04 4.72522592544556e+00 1066 
5.17729589843750e+03 1.18750439453125e+04 4.29255867004395e+00 1067 
2.90951049804688e+03 1.23910761718750e+04 4.42304229736328e+00 1068 
4.60752636718750e+03 9.08745507812500e+03 6.10067701339722e+00 1069 
8.19125537109375e+03 4.51096093750000e+03 3.64216065406799e+00 1070 
7.34806738281250e+03 5.62603515625000e+03 4.06714439392090e+00 1071 
8.54445996093750e+03 6.68654248046875e+03 3.79904294013977e+00 1072 
7.01258447265625e+03 7.49701855468750e+03 5.09317159652710e+00 1073 
7.87770117187500e+03 8.50047460937500e+03 3.94684648513794e+00 1074 
4.09931591796875e+03 8.41518066406250e+03 5.21060705184937e+00 1075 
5.85258691406250e+03 8.98272265625000e+03 4.92569923400879e+00 1076 
5.30010156250000e+03 9.18841796875000e+03 5.20502519607544e+00 1077 
8.62712402343750e+03 9.94481445312500e+03 3.56836605072021e+00 1078 
6.48228955078125e+03 9.98978515625000e+03 4.31078481674194e+00 1079 
4.91779248046875e+03 1.01112041015625e+04 4.76918220520020e+00 1080 
6.60685498046875e+03 1.02463076171875e+04 4.83631181716919e+00 1081 
7.39368994140625e+03 1.08504550781250e+04 4.18977069854736e+00 1082 
2.62596435546875e+03 1.15247373046875e+04 3.74296832084656e+00 1083 
3.35179345703125e+03 1.16447216796875e+04 4.08335685729980e+00 1084 
3.65949389648438e+03 1.25338056640625e+04 5.41212654113770e+00 1085 
8.24959179687500e+03 1.29391318359375e+04 3.82221841812134e+00 1086 
6.49097998046875e+03 1.15402509765625e+04 6.16184377670288e+00 1087 
7.43174316406250e+03 1.21824580078125e+04 6.74984312057495e+00 1088 
3.08272094726562e+03 1.25545849609375e+04 5.70921802520752e+00 1089 
7.73621289062500e+03 7.77442773437500e+03 8.98592090606689e+00 1090 
5.15964160156250e+03 9.02181835937500e+03 9.53840446472168e+00 1091 
6.68809033203125e+03 9.37659277343750e+03 8.43937110900879e+00 1092 
5.66030175781250e+03 1.09748906250000e+04 1.19446783065796e+01 1093 
8.77548535156250e+03 5.62453759765625e+03 6.04393243789673e+00 1094 
2.64388037109375e+03 6.10729736328125e+03 5.12890815734863e+00 1095 
6.06721875000000e+03 6.85263720703125e+03 4.00959491729736e+00 1096 
4.96592187500000e+03 7.10854150390625e+03 4.33701515197754e+00 1097 
5.60134960937500e+03 7.12878173828125e+03 4.02093315124512e+00 1098 
5.52948632812500e+03 8.78848242187500e+03 4.95200920104980e+00 1099 
5.73630468750000e+03 8.86065820312500e+03 5.70091295242310e+00 1100 
