ply
format ascii 1.0
element vertex 698
property double x
property double y
property double size
property short id
end_header
2.83610791015625e+03 5.34296142578125e+03 4.13717699050903e+00 588 
2.80732104492188e+03 4.66879492187500e+03 3.61927223205566e+00 589 
4.85058642578125e+03 4.63022412109375e+03 4.07720518112183e+00 590 
4.14059033203125e+03 4.52307519531250e+03 4.00500583648682e+00 591 
3.88082177734375e+03 4.01092163085938e+03 4.23276138305664e+00 592 
6.31871972656250e+03 3.43480493164062e+03 4.42849779129028e+00 593 
4.13578906250000e+03 1.52587249755859e+02 4.10496759414673e+00 594 
3.28216918945312e+03 4.57911767578125e+03 6.02285480499268e+00 596 
4.74222070312500e+03 9.67364929199219e+02 6.30238723754883e+00 599 
4.80107080078125e+03 9.42582336425781e+02 5.94516038894653e+00 600 
2.85222387695312e+03 7.32132714843750e+03 3.92210721969604e+00 601 
4.20986474609375e+03 7.30921630859375e+03 4.12006998062134e+00 602 
7.35985449218750e+03 6.39390673828125e+03 3.78555560112000e+00 604 
2.63817553710938e+03 5.48221777343750e+03 4.24207592010498e+00 605 
4.30966455078125e+03 5.29382080078125e+03 4.34263944625854e+00 606 
4.66031787109375e+03 4.28307031250000e+03 5.66155290603638e+00 609 
4.23769775390625e+03 3.95115771484375e+03 5.62116003036499e+00 610 
3.13505908203125e+03 2.85873559570312e+03 3.69992518424988e+00 612 
7.66530273437500e+03 3.35395312500000e+03 4.20134639739990e+00 613 
7.55170996093750e+03 3.27421289062500e+03 4.26597833633423e+00 614 
5.27227783203125e+03 2.63153173828125e+03 4.64495563507080e+00 615 
5.01359130859375e+03 2.54471484375000e+03 4.60946989059448e+00 616 
3.90125781250000e+03 8.30025512695312e+02 4.47521638870239e+00 617 
6.65820898437500e+03 6.63115380859375e+03 3.94020247459412e+00 621 
2.70048925781250e+03 4.61875634765625e+03 3.65991353988647e+00 624 
5.97262402343750e+03 2.10163061523438e+03 4.31303596496582e+00 625 
4.94292773437500e+03 1.97074853515625e+03 4.11223411560059e+00 626 
3.73667431640625e+03 1.59285119628906e+03 4.85730171203613e+00 627 
6.32566943359375e+03 5.66248718261719e+02 5.28278350830078e+00 629 
2.84084350585938e+03 7.53041552734375e+03 4.79348230361938e+00 630 
3.50661791992188e+03 7.14582568359375e+03 4.93434476852417e+00 632 
4.66151611328125e+03 6.71478613281250e+03 4.81756162643433e+00 633 
6.63294824218750e+03 6.93488183593750e+03 4.39107751846313e+00 634 
3.57994555664062e+03 6.51086669921875e+03 4.87198543548584e+00 635 
3.90151928710938e+03 6.37377685546875e+03 4.14693784713745e+00 636 
3.38937963867188e+03 5.91878271484375e+03 4.05845069885254e+00 637 
3.13303662109375e+03 4.85130126953125e+03 3.70687747001648e+00 639 
5.12052490234375e+03 4.67501953125000e+03 3.93204236030579e+00 640 
2.82547998046875e+03 3.22237988281250e+03 4.43568468093872e+00 641 
4.44631298828125e+03 2.82858032226562e+03 4.85230970382690e+00 643 
5.14282714843750e+03 2.73140356445312e+03 5.27963590621948e+00 644 
2.94894970703125e+03 2.38124365234375e+03 4.89162492752075e+00 645 
8.72169726562500e+03 2.56444042968750e+03 3.56265425682068e+00 646 
4.19671630859375e+03 1.78477429199219e+03 4.29305696487427e+00 647 
3.02946215820312e+03 1.34444335937500e+03 3.92999982833862e+00 648 
3.48970434570312e+03 1.37898364257812e+03 4.53948402404785e+00 649 
4.10480419921875e+03 1.36395825195312e+03 3.79787206649780e+00 650 
8.67026269531250e+03 1.14921655273438e+03 5.48885154724121e+00 651 
3.84261254882812e+03 4.99648651123047e+02 4.39249849319458e+00 652 
3.66197656250000e+03 7.46479150390625e+03 6.40370035171509e+00 653 
3.70909936523438e+03 5.96355810546875e+03 6.75239276885986e+00 654 
2.68359790039062e+03 4.75775732421875e+03 6.51752424240112e+00 655 
7.55043164062500e+03 2.99501538085938e+03 6.18650865554810e+00 657 
3.30482104492188e+03 4.67248809814453e+02 5.10573625564575e+00 658 
8.05504882812500e+03 7.98653125000000e+03 4.74031019210815e+00 662 
3.48057617187500e+03 6.84871044921875e+03 5.39510250091553e+00 664 
7.65221875000000e+03 7.33239208984375e+03 5.23524713516235e+00 665 
5.35831298828125e+03 7.00808642578125e+03 5.13971376419067e+00 666 
8.08778369140625e+03 5.67505664062500e+03 4.04534196853638e+00 669 
8.69840625000000e+03 5.64698339843750e+03 3.70618581771851e+00 670 
5.59552685546875e+03 5.04979589843750e+03 4.21453380584717e+00 671 
3.13714111328125e+03 3.70693603515625e+03 4.86606311798096e+00 672 
4.27894726562500e+03 3.84792553710938e+03 4.25665187835693e+00 673 
4.90819775390625e+03 2.61803173828125e+03 4.35462617874146e+00 675 
7.39225000000000e+03 2.70973364257812e+03 3.77477312088013e+00 676 
3.54192065429688e+03 2.20431274414062e+03 4.95088434219360e+00 677 
5.46264501953125e+03 1.86717260742188e+03 3.92886328697205e+00 678 
3.89374023437500e+03 1.55852770996094e+03 4.31360960006714e+00 679 
8.15834082031250e+03 1.95021044921875e+03 5.32062149047852e+00 680 
5.17057031250000e+03 1.58443579101562e+03 3.99846649169922e+00 681 
4.26185302734375e+03 1.31264868164062e+03 3.60444664955139e+00 682 
2.98243383789062e+03 9.54564086914062e+02 3.76464748382568e+00 683 
5.26959570312500e+03 7.01644042968750e+02 4.57245159149170e+00 686 
3.29035888671875e+03 1.36436233520508e+02 4.44275569915771e+00 687 
3.55211010742188e+03 9.85477148437500e+03 8.24040317535400e+00 688 
3.14260986328125e+03 9.10532073974609e+01 6.64239311218262e+00 690 
5.17748583984375e+03 7.89951025390625e+03 4.06388330459595e+00 691 
3.59721728515625e+03 7.72542138671875e+03 5.18101215362549e+00 692 
4.02050878906250e+03 7.23297265625000e+03 4.14373159408569e+00 693 
3.68268261718750e+03 5.31196337890625e+03 1.02004146575928e+01 695 
3.89758349609375e+03 3.76123120117188e+03 7.43791675567627e+00 696 
4.52599658203125e+03 6.35154638671875e+03 9.83969020843506e+00 699 
4.10463964843750e+03 5.13035351562500e+03 1.00449466705322e+01 700 
5.59033349609375e+03 5.04709375000000e+03 7.51053047180176e+00 701 
3.84068847656250e+03 3.84516040039062e+03 7.43904447555542e+00 702 
2.64941503906250e+03 4.60287597656250e+03 6.87213563919067e+00 706 
4.06614794921875e+03 3.68016894531250e+03 5.99762535095215e+00 707 
4.12332568359375e+03 2.13763745117188e+03 5.43690204620361e+00 708 
3.88083642578125e+03 2.13082226562500e+03 6.52142238616943e+00 709 
4.98082568359375e+03 1.10759533691406e+03 6.07734823226929e+00 710 
7.93700390625000e+03 8.14819970703125e+03 4.76793479919434e+00 711 
4.61857812500000e+03 6.80412304687500e+03 4.07751941680908e+00 714 
3.61487158203125e+03 6.28230322265625e+03 5.17747306823730e+00 716 
6.13260009765625e+03 6.30520361328125e+03 6.32591962814331e+00 717 
3.07484204101562e+03 5.86710400390625e+03 3.97232365608215e+00 718 
2.60439965820312e+03 5.59300781250000e+03 4.76420354843140e+00 719 
6.60484033203125e+03 5.45382568359375e+03 4.72699356079102e+00 721 
4.13004589843750e+03 4.52786816406250e+03 4.49065113067627e+00 723 
8.10539941406250e+03 4.33974755859375e+03 4.65390110015869e+00 725 
2.89503930664062e+03 3.26774291992188e+03 4.09164237976074e+00 727 
4.19032812500000e+03 3.10237255859375e+03 4.21740436553955e+00 730 
3.11606665039062e+03 2.26590747070312e+03 3.85139703750610e+00 732 
3.00848754882812e+03 2.02179504394531e+03 4.63945627212524e+00 733 
4.78684082031250e+03 1.73101110839844e+03 3.79995656013489e+00 735 
6.82691455078125e+03 1.26887145996094e+03 4.58015394210815e+00 736 
5.10283935546875e+03 4.68197906494141e+02 4.24602079391479e+00 738 
4.86259130859375e+03 4.45443389892578e+02 4.17573308944702e+00 739 
4.58364843750000e+03 5.78421582031250e+03 6.26814699172974e+00 741 
5.02614355468750e+03 3.35039526367188e+03 4.63032722473145e+00 743 
3.87816503906250e+03 2.20838745117188e+03 6.38501882553101e+00 744 
3.85920043945312e+03 5.43275451660156e+02 6.38200521469116e+00 745 
2.98606079101562e+03 7.54240771484375e+03 4.19785547256470e+00 746 
4.72332031250000e+03 7.45213378906250e+03 4.08087253570557e+00 747 
3.06305395507812e+03 6.63646240234375e+03 4.35429573059082e+00 748 
4.74049951171875e+03 6.62843652343750e+03 4.18670988082886e+00 749 
3.59707470703125e+03 6.32948583984375e+03 4.84629201889038e+00 750 
6.42055615234375e+03 6.21479052734375e+03 3.77137398719788e+00 752 
2.71348071289062e+03 5.77491308593750e+03 4.18955516815186e+00 753 
2.61841333007812e+03 5.50629296875000e+03 4.84128189086914e+00 754 
4.52807910156250e+03 6.35815771484375e+03 8.28347301483154e+00 756 
6.35027246093750e+03 8.05937402343750e+03 8.42704296112061e+00 760 
3.80673388671875e+03 5.35772753906250e+03 1.20126829147339e+01 761 
3.81006909179688e+03 4.98438427734375e+03 4.16399669647217e+00 765 
8.07355957031250e+03 5.36086962890625e+03 5.00683164596558e+00 766 
3.43119848632812e+03 4.88250537109375e+03 4.21577644348145e+00 767 
3.30157446289062e+03 4.62681884765625e+03 3.83924460411072e+00 768 
4.44731689453125e+03 4.42841308593750e+03 5.21730566024780e+00 769 
4.80984570312500e+03 3.55367382812500e+03 3.77183532714844e+00 770 
6.16303027343750e+03 3.55334741210938e+03 4.30232143402100e+00 771 
4.45333300781250e+03 3.16306323242188e+03 5.64924144744873e+00 772 
7.36260302734375e+03 2.92713891601562e+03 5.42602443695068e+00 773 
3.32999975585938e+03 2.15813208007812e+03 4.45921230316162e+00 774 
6.83440283203125e+03 2.39026562500000e+03 5.32188129425049e+00 775 
3.93390454101562e+03 1.14431091308594e+03 5.25207471847534e+00 777 
4.44085009765625e+03 1.11536834716797e+02 3.96860575675964e+00 782 
8.29279882812500e+03 4.72329742431641e+02 4.69964265823364e+00 783 
3.29598730468750e+03 7.82657910156250e+03 5.50877428054810e+00 784 
2.66612988281250e+03 6.63162255859375e+03 6.61881780624390e+00 785 
4.69374414062500e+03 5.31748876953125e+03 5.89091110229492e+00 786 
4.87256347656250e+03 9.07825317382812e+02 6.21995878219604e+00 787 
2.94373583984375e+03 7.51507812500000e+03 5.05721855163574e+00 788 
2.88561083984375e+03 7.50130859375000e+03 4.61287832260132e+00 789 
4.36903027343750e+03 7.21809667968750e+03 4.36081695556641e+00 790 
8.10091113281250e+03 7.28610937500000e+03 4.63845872879028e+00 791 
4.53423046875000e+03 6.56535400390625e+03 3.63977813720703e+00 792 
3.30706054687500e+03 6.46883251953125e+03 5.06089019775391e+00 793 
2.75151391601562e+03 5.24084277343750e+03 4.45358705520630e+00 796 
7.90888330078125e+03 5.54025683593750e+03 4.13217353820801e+00 797 
4.83033642578125e+03 3.54219531250000e+03 3.81286168098450e+00 799 
6.43871386718750e+03 3.62539746093750e+03 4.32085561752319e+00 800 
2.92642333984375e+03 2.93572143554688e+03 4.49060964584351e+00 801 
4.16304492187500e+03 2.97097827148438e+03 4.19382429122925e+00 802 
6.38640625000000e+03 3.09018212890625e+03 5.49269056320190e+00 804 
2.89319165039062e+03 2.11589453125000e+03 4.59371662139893e+00 805 
4.33476171875000e+03 2.19625122070312e+03 3.97896504402161e+00 806 
4.74963916015625e+03 1.78409362792969e+03 3.85544085502625e+00 808 
4.80180957031250e+03 1.72157409667969e+03 4.09775066375732e+00 809 
4.72940820312500e+03 1.65330651855469e+03 3.97530460357666e+00 810 
3.92311083984375e+03 1.04789916992188e+03 3.60298752784729e+00 812 
3.93076757812500e+03 1.01549029541016e+03 4.97081661224365e+00 813 
5.27489550781250e+03 8.70936218261719e+02 4.30114316940308e+00 814 
5.23080615234375e+03 8.05248046875000e+02 3.74263954162598e+00 815 
3.88922680664062e+03 6.28174743652344e+02 4.66609668731689e+00 816 
3.13800463867188e+03 7.04814013671875e+03 5.89326667785645e+00 818 
3.96776342773438e+03 4.75704785156250e+03 6.89200115203857e+00 819 
8.09375195312500e+03 5.09107177734375e+03 6.19937181472778e+00 820 
4.63479443359375e+03 7.49988476562500e+03 4.05120515823364e+00 821 
3.59243579101562e+03 6.50929589843750e+03 4.65316152572632e+00 822 
5.46842724609375e+03 6.17116992187500e+03 5.34101581573486e+00 824 
5.09291162109375e+03 6.13965039062500e+03 5.35178470611572e+00 825 
3.24941772460938e+03 5.70339892578125e+03 3.80299377441406e+00 826 
2.63814916992188e+03 5.51462744140625e+03 4.67407989501953e+00 827 
4.62918554687500e+03 5.63659082031250e+03 4.85781335830688e+00 828 
8.15337353515625e+03 5.70304248046875e+03 5.47180557250977e+00 829 
3.30449291992188e+03 4.55486132812500e+03 4.81772232055664e+00 831 
3.89132495117188e+03 4.01300073242188e+03 4.58717918395996e+00 834 
3.57071728515625e+03 3.84229882812500e+03 5.18868589401245e+00 835 
5.31063427734375e+03 3.96077856445312e+03 5.04454421997070e+00 836 
3.29304321289062e+03 3.65359863281250e+03 4.66434144973755e+00 838 
3.48153564453125e+03 2.66919238281250e+03 4.95858287811279e+00 839 
5.00347412109375e+03 2.55004394531250e+03 4.49274873733521e+00 840 
3.20725659179688e+03 2.03730029296875e+03 4.05941104888916e+00 841 
8.72118164062500e+03 2.57965161132812e+03 5.31153392791748e+00 842 
5.27640673828125e+03 1.85054223632812e+03 3.83069491386414e+00 844 
4.04219140625000e+03 1.41968066406250e+03 4.36921596527100e+00 845 
4.14581835937500e+03 1.19181140136719e+03 3.75627326965332e+00 846 
3.24316748046875e+03 5.39072814941406e+02 4.00250673294067e+00 847 
5.23795605468750e+03 1.47466674804688e+02 4.05527448654175e+00 850 
8.52719335937500e+03 8.23625488281250e+03 4.89917755126953e+00 851 
3.36141333007812e+03 4.69074169921875e+03 5.99561071395874e+00 852 
6.64906201171875e+03 8.08476855468750e+03 4.18672513961792e+00 853 
4.37240429687500e+03 7.67319433593750e+03 3.73691082000732e+00 854 
2.53788378906250e+03 7.40937353515625e+03 3.46239805221558e+00 855 
5.26233300781250e+03 7.42930761718750e+03 4.13908576965332e+00 856 
4.38275830078125e+03 7.25685400390625e+03 4.01806974411011e+00 857 
4.94694335937500e+03 6.42206933593750e+03 3.94812607765198e+00 858 
3.90487500000000e+03 6.20898681640625e+03 3.89840006828308e+00 859 
5.47898046875000e+03 6.14415966796875e+03 5.49078083038330e+00 860 
4.20893164062500e+03 4.98027441406250e+03 4.43982076644897e+00 861 
2.65512255859375e+03 4.74602929687500e+03 4.75782442092896e+00 862 
5.56809033203125e+03 4.97016015625000e+03 4.38518571853638e+00 863 
4.77130810546875e+03 4.71807519531250e+03 3.82219743728638e+00 866 
3.88883227539062e+03 2.62545776367188e+03 5.42104768753052e+00 867 
3.99036328125000e+03 2.52093408203125e+03 4.06159543991089e+00 868 
3.08103857421875e+03 2.04545825195312e+03 4.11067724227905e+00 869 
6.11286572265625e+03 1.01031842041016e+03 4.21015405654907e+00 870 
5.27293750000000e+03 8.53788269042969e+02 4.11771154403687e+00 871 
4.75472216796875e+03 4.41392761230469e+02 4.21139812469482e+00 872 
2.67850024414062e+03 6.33214062500000e+03 3.85648345947266e+00 873 
2.91618041992188e+03 6.19009960937500e+03 4.54315948486328e+00 874 
5.50042089843750e+03 6.08748046875000e+03 5.51469373703003e+00 875 
5.37793505859375e+03 5.88925097656250e+03 3.56361126899719e+00 876 
3.40001708984375e+03 5.44766308593750e+03 4.27863264083862e+00 877 
6.38570312500000e+03 5.54459814453125e+03 5.42363500595093e+00 878 
3.00569409179688e+03 5.18342529296875e+03 5.33044385910034e+00 879 
6.60025927734375e+03 5.46999072265625e+03 4.71576547622681e+00 880 
4.55953466796875e+03 5.24940283203125e+03 5.25573635101318e+00 881 
4.89032177734375e+03 5.17473046875000e+03 4.51590681076050e+00 883 
3.27085839843750e+03 4.58147363281250e+03 4.38863277435303e+00 884 
4.44638818359375e+03 4.38236767578125e+03 5.04000902175903e+00 885 
3.10285449218750e+03 3.72275927734375e+03 4.85659408569336e+00 887 
3.21148950195312e+03 3.66859082031250e+03 5.09745597839355e+00 888 
3.50019946289062e+03 3.21079565429688e+03 4.06862115859985e+00 891 
6.74479394531250e+03 3.48720361328125e+03 4.38451385498047e+00 892 
7.70086962890625e+03 3.48441186523438e+03 5.21732044219971e+00 893 
6.98007421875000e+03 2.95192773437500e+03 4.15846109390259e+00 894 
6.72191552734375e+03 2.07050366210938e+03 6.21805286407471e+00 896 
4.74219140625000e+03 1.73681250000000e+03 4.04441308975220e+00 898 
3.88466064453125e+03 1.49357324218750e+03 3.97003602981567e+00 899 
4.82585107421875e+03 1.50498413085938e+02 3.85846781730652e+00 902 
4.79598486328125e+03 1.08424522399902e+02 4.24543619155884e+00 903 
4.59696630859375e+03 5.74250000000000e+03 7.04223632812500e+00 905 
3.87430102539062e+03 2.10687451171875e+03 6.45303153991699e+00 907 
7.92115527343750e+03 8.18213183593750e+03 4.33233594894409e+00 910 
3.58786914062500e+03 6.53812548828125e+03 4.58183050155640e+00 912 
4.72006542968750e+03 6.64044970703125e+03 3.73735189437866e+00 913 
2.89392163085938e+03 6.23610986328125e+03 4.12969446182251e+00 915 
8.09396972656250e+03 6.36066406250000e+03 3.74334216117859e+00 916 
3.36491723632812e+03 5.67839599609375e+03 4.72181892395020e+00 917 
8.04779687500000e+03 5.35841748046875e+03 6.35811614990234e+00 919 
6.31395703125000e+03 5.11105761718750e+03 4.26556968688965e+00 921 
4.05007153320312e+03 4.70837695312500e+03 4.10282754898071e+00 922 
4.30629541015625e+03 3.94963891601562e+03 4.77304601669312e+00 923 
3.06846997070312e+03 3.73947753906250e+03 4.60900783538818e+00 924 
3.78046850585938e+03 3.07505859375000e+03 4.08134841918945e+00 926 
3.77374707031250e+03 2.42966552734375e+03 5.05255126953125e+00 928 
5.43674023437500e+03 1.95184533691406e+03 4.17004060745239e+00 932 
2.97871240234375e+03 1.50611303710938e+03 4.62322235107422e+00 933 
2.89428588867188e+03 1.38015014648438e+03 3.75225901603699e+00 934 
5.20802587890625e+03 8.05412902832031e+02 3.83151412010193e+00 937 
4.88498876953125e+03 1.08227317810059e+02 4.29664802551270e+00 938 
5.90036816406250e+03 8.03829052734375e+03 6.77172946929932e+00 940 
4.85197558593750e+03 7.67837451171875e+03 4.02620744705200e+00 941 
4.45376611328125e+03 7.60317578125000e+03 4.75867605209351e+00 942 
4.22252685546875e+03 6.52451953125000e+03 4.07405471801758e+00 943 
7.88031103515625e+03 6.39716162109375e+03 4.56786108016968e+00 944 
8.19387890625000e+03 2.56697802734375e+03 3.79741239547729e+00 945 
3.95885961914062e+03 7.50227783203125e+03 3.92521834373474e+00 946 
8.73818164062500e+03 3.12971948242188e+03 6.33244371414185e+00 947 
2.37058544921875e+03 6.27309472656250e+03 3.82236504554749e+00 948 
3.58909960937500e+03 1.93119580078125e+03 3.99700927734375e+00 949 
4.86266552734375e+03 9.18910705566406e+02 5.01342535018921e+00 950 
6.02423046875000e+03 6.60207226562500e+03 5.52866268157959e+00 951 
3.31706713867188e+03 4.41850402832031e+02 4.19992828369141e+00 952 
6.83950292968750e+03 1.65528854370117e+02 4.34624338150024e+00 953 
7.22141455078125e+03 7.83828887939453e+01 4.47401952743530e+00 954 
8.63487988281250e+03 1.18647140502930e+02 3.84435892105103e+00 955 
2.44009570312500e+03 7.73234667968750e+03 4.24316549301147e+00 956 
4.25036425781250e+03 6.55875146484375e+03 4.93671751022339e+00 957 
6.90318212890625e+03 3.58223510742188e+02 4.04623556137085e+00 958 
8.30545019531250e+03 7.42192333984375e+03 4.76288032531738e+00 959 
6.38485498046875e+03 3.14570629882812e+03 4.11806535720825e+00 960 
6.77073291015625e+03 2.82480639648438e+03 5.01813888549805e+00 961 
8.35485058593750e+03 2.34734130859375e+03 4.81046676635742e+00 962 
4.91574804687500e+03 7.95850683593750e+03 4.20851993560791e+00 963 
6.04636914062500e+03 7.87758154296875e+03 4.35020399093628e+00 964 
6.60054638671875e+03 7.00842041015625e+03 4.46208381652832e+00 965 
3.57031347656250e+03 2.38747314453125e+03 4.36083173751831e+00 966 
7.32342285156250e+03 1.06510986328125e+03 4.53558731079102e+00 967 
6.29845996093750e+03 1.98255639648438e+03 4.17523527145386e+00 968 
4.47428613281250e+03 1.06156958007812e+03 3.81735658645630e+00 969 
3.34245703125000e+03 5.25465039062500e+03 5.41887378692627e+00 970 
6.44386328125000e+03 4.97640576171875e+03 4.76327180862427e+00 971 
2.60634204101562e+03 4.59905810546875e+03 4.28137445449829e+00 972 
4.34149316406250e+03 3.38304760742188e+03 4.66275739669800e+00 973 
5.65254052734375e+03 3.41977246093750e+03 4.14825057983398e+00 974 
4.33433349609375e+03 4.09055480957031e+02 4.07195043563843e+00 975 
5.34115576171875e+03 6.50433349609375e+03 5.54928350448608e+00 976 
2.47680712890625e+03 7.42272753906250e+03 4.32878780364990e+00 977 
3.11626220703125e+03 3.65618505859375e+03 4.06328868865967e+00 978 
6.11184082031250e+03 3.22016845703125e+03 4.60908508300781e+00 979 
7.01443164062500e+03 6.14999804687500e+03 6.27582263946533e+00 980 
5.21946191406250e+03 7.73998925781250e+03 5.08082962036133e+00 981 
8.53674707031250e+03 7.15870263671875e+03 4.94936084747314e+00 982 
6.75656103515625e+03 1.30320236206055e+02 6.53979063034058e+00 983 
8.18285058593750e+03 5.10278417968750e+03 5.12929058074951e+00 984 
3.26579272460938e+03 2.45330737304688e+03 3.74177622795105e+00 985 
6.79600000000000e+03 1.30449279785156e+03 4.05820846557617e+00 986 
3.84066357421875e+03 5.12739379882812e+02 4.03761291503906e+00 987 
5.99421582031250e+03 7.81263183593750e+03 6.47913265228271e+00 988 
4.82099609375000e+03 7.64062548828125e+03 4.45748186111450e+00 989 
4.82992919921875e+03 7.14381005859375e+03 4.15702295303345e+00 990 
7.51558007812500e+03 5.47891796875000e+03 5.42342996597290e+00 991 
8.40709082031250e+03 7.44279248046875e+03 6.10023546218872e+00 992 
8.56236132812500e+03 1.58167892456055e+02 6.76924276351929e+00 993 
2.97709399414062e+03 6.85704492187500e+03 4.19165754318237e+00 994 
2.71489599609375e+03 4.26225927734375e+03 3.91854929924011e+00 995 
4.42143798828125e+03 3.42726440429688e+03 5.02347660064697e+00 996 
2.69943237304688e+03 7.72893554687500e+03 7.10689067840576e+00 997 
5.55964062500000e+03 7.31017822265625e+03 3.94281244277954e+00 998 
7.50868359375000e+03 5.33836279296875e+03 5.29831504821777e+00 999 
3.59904370117188e+03 1.67822436523438e+03 4.10873126983643e+00 1000 
8.25187890625000e+03 4.73572314453125e+03 6.60875034332275e+00 1001 
6.10995654296875e+03 7.79265185546875e+03 5.59069156646729e+00 1002 
8.52652636718750e+03 7.55442968750000e+03 4.20846939086914e+00 1003 
4.50426318359375e+03 4.05255712890625e+03 4.72185993194580e+00 1004 
5.19656005859375e+03 8.15878601074219e+02 3.62044286727905e+00 1005 
6.88577734375000e+03 9.22994918823242e+01 3.98051190376282e+00 1006 
2.61944628906250e+03 5.24050097656250e+03 6.00553274154663e+00 1007 
7.69390917968750e+03 5.64571582031250e+03 4.03514862060547e+00 1008 
6.21644580078125e+03 5.06685400390625e+03 3.46460485458374e+00 1009 
5.17301611328125e+03 3.88532373046875e+03 5.49997138977051e+00 1010 
4.10981884765625e+03 1.35448376464844e+03 3.82254409790039e+00 1011 
6.07164892578125e+03 7.96278662109375e+03 5.96092081069946e+00 1012 
7.87694726562500e+03 6.42770800781250e+03 5.04921531677246e+00 1013 
6.87229736328125e+03 5.82238574218750e+03 4.11988925933838e+00 1014 
4.87205322265625e+03 5.20021191406250e+03 4.71105289459229e+00 1015 
2.69404150390625e+03 4.73787841796875e+03 4.35346269607544e+00 1016 
4.08703930664062e+03 2.93751391601562e+03 4.84472751617432e+00 1017 
4.30623486328125e+03 1.47283889770508e+02 5.01290893554688e+00 1018 
6.58622119140625e+03 8.86492675781250e+03 5.18145418167114e+00 1032 
6.92627246093750e+03 9.17298437500000e+03 4.73594999313354e+00 1033 
6.87404687500000e+03 9.75572558593750e+03 4.01363515853882e+00 1034 
8.45541503906250e+03 1.00033564453125e+04 4.14176845550537e+00 1035 
5.73350390625000e+03 9.94922167968750e+03 4.99519586563110e+00 1036 
5.46348974609375e+03 1.05769794921875e+04 3.69500184059143e+00 1037 
4.73095996093750e+03 1.08756601562500e+04 3.94611167907715e+00 1038 
6.15185791015625e+03 1.16386347656250e+04 5.01611757278442e+00 1040 
6.00878027343750e+03 1.19757792968750e+04 4.20144414901733e+00 1041 
5.53413964843750e+03 1.25085595703125e+04 4.17623805999756e+00 1042 
6.00403515625000e+03 1.26635449218750e+04 4.59704828262329e+00 1043 
7.33077539062500e+03 1.26008945312500e+04 5.92173671722412e+00 1045 
8.73113769531250e+03 5.63924511718750e+03 3.83287096023560e+00 1047 
7.64683105468750e+03 7.34398535156250e+03 3.90954899787903e+00 1049 
4.94415283203125e+03 8.22263281250000e+03 4.10510921478271e+00 1050 
7.83971630859375e+03 8.73077441406250e+03 4.38262462615967e+00 1051 
5.44301953125000e+03 8.61093164062500e+03 5.16329765319824e+00 1052 
8.21570214843750e+03 9.10771582031250e+03 3.67006564140320e+00 1053 
8.22550292968750e+03 9.13936621093750e+03 4.84917402267456e+00 1054 
6.89405468750000e+03 9.15604199218750e+03 4.22396945953369e+00 1056 
6.76450683593750e+03 9.43473925781250e+03 4.12681245803833e+00 1061 
5.38676904296875e+03 1.07304609375000e+04 4.16673517227173e+00 1062 
4.80665087890625e+03 1.08901816406250e+04 4.67589473724365e+00 1064 
7.30626660156250e+03 1.13125654296875e+04 4.49186325073242e+00 1065 
8.41278710937500e+03 1.17593349609375e+04 4.33771753311157e+00 1066 
7.56912353515625e+03 1.20325566406250e+04 4.35853099822998e+00 1067 
5.25172412109375e+03 1.24810488281250e+04 4.37382793426514e+00 1068 
6.59296142578125e+03 8.52977734375000e+03 4.65695571899414e+00 1075 
8.30328417968750e+03 9.15188378906250e+03 4.89381980895996e+00 1076 
7.74308349609375e+03 9.34192480468750e+03 5.22316169738770e+00 1077 
7.33341552734375e+03 1.02560966796875e+04 4.65376472473145e+00 1080 
4.99425439453125e+03 1.16033457031250e+04 3.83769392967224e+00 1083 
5.73738281250000e+03 1.17465791015625e+04 3.89836883544922e+00 1084 
6.02086279296875e+03 1.26471484375000e+04 5.01610612869263e+00 1085 
5.42169921875000e+03 1.26506015625000e+04 5.11131381988525e+00 1089 
7.60783056640625e+03 9.16944140625000e+03 8.72710227966309e+00 1091 
5.17636914062500e+03 6.17380615234375e+03 5.04056215286255e+00 1095 
8.61134277343750e+03 7.02606982421875e+03 3.63539338111877e+00 1096 
7.47558642578125e+03 7.24752441406250e+03 4.44874143600464e+00 1097 
8.11066064453125e+03 7.28700927734375e+03 4.10302495956421e+00 1098 
7.98651464843750e+03 8.94720703125000e+03 4.62455797195435e+00 1099 
8.19060351562500e+03 9.02642187500000e+03 5.42488908767700e+00 1100 
6.16505615234375e+03 9.15632714843750e+03 4.45553827285767e+00 1101 
5.49416015625000e+03 1.05155576171875e+04 4.60763025283813e+00 1103 
5.19119824218750e+03 1.09640410156250e+04 5.12716913223267e+00 1104 
5.12578271484375e+03 1.19393193359375e+04 4.54298019409180e+00 1106 
6.93156298828125e+03 1.28557500000000e+04 3.68869829177856e+00 1107 
7.44940283203125e+03 8.41430566406250e+03 3.93159437179565e+00 1110 
6.96400537109375e+03 8.41697070312500e+03 4.05043172836304e+00 1111 
5.13897363281250e+03 8.42756542968750e+03 4.32093524932861e+00 1113 
5.22187841796875e+03 9.39989941406250e+03 4.15297508239746e+00 1114 
8.27385644531250e+03 1.00185478515625e+04 6.14158058166504e+00 1115 
8.59256933593750e+03 1.05701386718750e+04 5.40254926681519e+00 1118 
5.02500097656250e+03 1.20970498046875e+04 3.71323013305664e+00 1121 
6.74479443359375e+03 1.28973955078125e+04 4.80418586730957e+00 1122 
6.70925048828125e+03 1.20868339843750e+04 3.73222732543945e+00 1123 
7.01058105468750e+03 1.24616621093750e+04 4.35419607162476e+00 1124 
7.32937207031250e+03 8.54825878906250e+03 4.18692731857300e+00 1128 
8.23862792968750e+03 9.12187011718750e+03 4.68452978134155e+00 1129 
6.70352832031250e+03 9.60694042968750e+03 3.68602347373962e+00 1130 
5.48819433593750e+03 1.04752109375000e+04 4.33434629440308e+00 1132 
7.05604931640625e+03 1.10087050781250e+04 4.98398351669312e+00 1134 
4.75714697265625e+03 1.11801718750000e+04 3.70438671112061e+00 1135 
8.77337402343750e+03 1.20022138671875e+04 4.73567295074463e+00 1137 
7.75074658203125e+03 6.17839355468750e+03 4.01375055313110e+00 1140 
6.65045605468750e+03 8.56713928222656e+02 4.29385423660278e+00 1142 
6.54463867187500e+03 4.72633105468750e+03 4.32987880706787e+00 1146 
8.20654492187500e+03 9.13108593750000e+03 4.43523645401001e+00 1147 
7.11181005859375e+03 9.09715429687500e+03 5.29631233215332e+00 1148 
7.78014990234375e+03 9.16879980468750e+03 3.85768365859985e+00 1149 
5.77882324218750e+03 9.88056933593750e+03 4.38421106338501e+00 1151 
5.56865332031250e+03 1.01389062500000e+04 5.15400791168213e+00 1152 
7.14352783203125e+03 1.05722646484375e+04 4.26589250564575e+00 1153 
4.83754541015625e+03 1.08885839843750e+04 4.12945270538330e+00 1154 
8.52552734375000e+03 1.29347187500000e+04 4.65956211090088e+00 1155 
6.76180126953125e+03 1.28901865234375e+04 3.79340386390686e+00 1156 
6.05479882812500e+03 1.19302597656250e+04 4.74578094482422e+00 1158 
7.86579199218750e+03 3.63882812500000e+02 4.19934797286987e+00 1159 
6.04287695312500e+03 8.58833496093750e+03 4.06196165084839e+00 1161 
8.31379589843750e+03 9.18067382812500e+03 4.54999065399170e+00 1162 
5.14991699218750e+03 1.12134843750000e+04 3.59317064285278e+00 1165 
5.81710205078125e+03 9.80355566406250e+03 5.95010375976562e+00 1166 
7.05335546875000e+03 1.14924121093750e+04 5.78489303588867e+00 1167 
8.61093066406250e+03 1.19349238281250e+04 4.55301713943481e+00 1168 
6.34731298828125e+03 9.72093261718750e+03 7.69794321060181e+00 1170 
6.10827832031250e+03 1.13039824218750e+04 7.42515468597412e+00 1173 
8.24178515625000e+03 1.19394541015625e+04 7.82480669021606e+00 1175 
7.93383349609375e+03 1.24272490234375e+04 7.96761703491211e+00 1176 
6.26367236328125e+03 1.13238076171875e+04 1.32673654556274e+01 1177 
6.39815625000000e+03 9.72614355468750e+03 3.64436292648315e+00 1184 
5.07638525390625e+03 9.76804687500000e+03 5.32265901565552e+00 1185 
5.07656054687500e+03 9.90822460937500e+03 5.45323467254639e+00 1186 
5.57483300781250e+03 1.02729433593750e+04 4.76080179214478e+00 1189 
7.85636767578125e+03 1.07278789062500e+04 4.38648653030396e+00 1190 
8.01140234375000e+03 1.13387392578125e+04 5.17812824249268e+00 1195 
6.06918115234375e+03 1.16361162109375e+04 5.16410064697266e+00 1196 
7.62265673828125e+03 1.18824892578125e+04 4.83298540115356e+00 1197 
7.66895263671875e+03 1.18847343750000e+04 5.41172122955322e+00 1198 
7.71720214843750e+03 1.18873828125000e+04 5.37967395782471e+00 1199 
7.89842871093750e+03 1.28488154296875e+04 4.17277431488037e+00 1201 
6.96397216796875e+03 1.28235175781250e+04 4.01668024063110e+00 1202 
6.32667626953125e+03 7.26707324218750e+03 6.43682098388672e+00 1203 
7.45149023437500e+03 1.28486455078125e+04 6.43507099151611e+00 1204 
6.09105468750000e+03 6.50991357421875e+03 5.29352474212646e+00 1206 
5.66225097656250e+03 8.40173535156250e+03 4.64504432678223e+00 1209 
6.22888623046875e+03 8.88783203125000e+03 4.92280101776123e+00 1210 
5.81111962890625e+03 9.37792675781250e+03 4.23714971542358e+00 1215 
5.08925830078125e+03 9.79945019531250e+03 5.26865625381470e+00 1216 
4.77433300781250e+03 1.01016171875000e+04 4.25703620910645e+00 1219 
6.68191064453125e+03 1.02167011718750e+04 4.26292610168457e+00 1220 
6.84072216796875e+03 1.02559882812500e+04 3.93937063217163e+00 1221 
7.26774316406250e+03 1.02826269531250e+04 3.95555853843689e+00 1222 
6.12136718750000e+03 1.04382763671875e+04 5.12996768951416e+00 1223 
4.82274072265625e+03 1.06050898437500e+04 4.72879362106323e+00 1225 
7.04214306640625e+03 1.14851201171875e+04 5.03609037399292e+00 1226 
7.88236376953125e+03 1.18611142578125e+04 5.74000358581543e+00 1227 
6.94192431640625e+03 1.18627812500000e+04 3.93432354927063e+00 1228 
4.86604833984375e+03 1.22956279296875e+04 3.87862920761108e+00 1230 
8.67537792968750e+03 1.25280537109375e+04 4.12140750885010e+00 1231 
8.17548876953125e+03 1.27612373046875e+04 4.34096479415894e+00 1232 
6.10062451171875e+03 1.26659228515625e+04 5.06804084777832e+00 1233 
7.11623876953125e+03 1.10685029296875e+04 4.80208635330200e+00 1234 
8.21419531250000e+03 1.27522197265625e+04 6.57259607315063e+00 1235 
8.54470703125000e+03 3.32249359130859e+02 3.95764636993408e+00 1236 
8.16517968750000e+03 5.63217919921875e+03 4.52125453948975e+00 1239 
5.78472216796875e+03 8.54589941406250e+03 5.26803064346313e+00 1243 
7.98508398437500e+03 9.00760253906250e+03 4.98175859451294e+00 1244 
5.77419042968750e+03 9.28574218750000e+03 3.89983797073364e+00 1245 
5.75433789062500e+03 9.31556152343750e+03 4.52980995178223e+00 1246 
5.80095947265625e+03 9.47683105468750e+03 4.30931234359741e+00 1248 
4.97607177734375e+03 9.76821777343750e+03 3.89716601371765e+00 1252 
7.97188232421875e+03 1.07192441406250e+04 3.85017371177673e+00 1253 
7.80319335937500e+03 1.08195937500000e+04 5.26203536987305e+00 1254 
6.00209521484375e+03 1.16326171875000e+04 4.45801353454590e+00 1259 
6.16372705078125e+03 1.16424189453125e+04 5.01776027679443e+00 1260 
7.89935400390625e+03 1.18464658203125e+04 5.24713802337646e+00 1261 
7.02879687500000e+03 1.26410312500000e+04 3.68680882453918e+00 1263 
7.29105126953125e+03 1.13038154296875e+04 1.12675523757935e+01 1264 
7.53056933593750e+03 9.57662207031250e+03 8.92701625823975e+00 1265 
5.96520410156250e+03 1.06091699218750e+04 1.09576721191406e+01 1266 
6.35924853515625e+03 8.03707324218750e+03 8.73087501525879e+00 1268 
7.80002001953125e+03 1.03430712890625e+04 1.11736211776733e+01 1269 
5.16746240234375e+03 5.76785156250000e+03 3.74164485931396e+00 1271 
5.07835107421875e+03 9.05813671875000e+03 3.65294861793518e+00 1273 
5.91910253906250e+03 9.52967187500000e+03 4.32467508316040e+00 1275 
6.11102636718750e+03 9.53979785156250e+03 4.01661396026611e+00 1276 
6.67646777343750e+03 1.01371103515625e+04 5.08789300918579e+00 1278 
8.69565527343750e+03 1.07963349609375e+04 3.84965705871582e+00 1279 
4.66533935546875e+03 1.19480712890625e+04 4.71283912658691e+00 1284 
8.38586035156250e+03 1.27208779296875e+04 3.86927366256714e+00 1286 
6.59129736328125e+03 6.99941357421875e+03 4.81783437728882e+00 1289 
8.52640625000000e+03 8.00241845703125e+03 3.94429874420166e+00 1290 
8.67321191406250e+03 8.77410351562500e+03 4.24057054519653e+00 1291 
8.24069042968750e+03 9.33125488281250e+03 3.88586163520813e+00 1293 
7.15679980468750e+03 1.05658476562500e+04 5.35044002532959e+00 1297 
7.74393408203125e+03 1.17017197265625e+04 4.61371088027954e+00 1298 
8.41571875000000e+03 1.17722021484375e+04 3.71527171134949e+00 1299 
5.18553906250000e+03 1.16071347656250e+04 4.92309856414795e+00 1300 
6.55820214843750e+03 1.19162255859375e+04 5.23875999450684e+00 1302 
4.83292968750000e+03 1.19654248046875e+04 4.49803209304810e+00 1303 
8.63192578125000e+03 1.25788261718750e+04 4.42516851425171e+00 1304 
5.51910644531250e+03 1.27274990234375e+04 5.10795068740845e+00 1305 
7.01032958984375e+03 1.19375996093750e+04 4.63989877700806e+00 1307 
7.02650683593750e+03 1.19379697265625e+04 3.95450925827026e+00 1308 
8.62069042968750e+03 1.25911503906250e+04 4.55864143371582e+00 1311 
7.13949023437500e+03 1.24806796875000e+04 6.43647813796997e+00 1315 
7.74806738281250e+03 1.77399890136719e+03 4.41717958450317e+00 1316 
5.31739990234375e+03 5.70263574218750e+03 3.62767386436462e+00 1319 
8.36099414062500e+03 8.67563183593750e+03 3.69561457633972e+00 1321 
8.33363574218750e+03 8.74061523437500e+03 4.80383586883545e+00 1322 
7.76977587890625e+03 9.22059179687500e+03 4.53000688552856e+00 1323 
5.84006933593750e+03 9.39156738281250e+03 4.38978099822998e+00 1326 
4.94931103515625e+03 9.77666503906250e+03 5.08657932281494e+00 1327 
4.92759277343750e+03 9.80443066406250e+03 5.23147964477539e+00 1328 
3.13198388671875e+03 9.98469238281250e+03 6.72391939163208e+00 1329 
7.48049414062500e+03 1.01293808593750e+04 5.08024597167969e+00 1330 
4.74234619140625e+03 1.10236416015625e+04 5.01843643188477e+00 1332 
6.43937402343750e+03 1.12844687500000e+04 4.08787107467651e+00 1333 
7.82235644531250e+03 1.24207812500000e+04 5.73947811126709e+00 1336 
7.88954248046875e+03 1.24220576171875e+04 4.02585983276367e+00 1337 
5.60400537109375e+03 1.23456894531250e+04 3.95120477676392e+00 1338 
8.64293164062500e+03 1.25662617187500e+04 4.31310510635376e+00 1339 
6.30222314453125e+03 9.71873730468750e+03 6.76149225234985e+00 1341 
6.33664404296875e+03 2.06364770507812e+03 4.00360107421875e+00 1342 
6.07821728515625e+03 6.53911181640625e+03 5.22056007385254e+00 1343 
5.69948632812500e+03 8.39484863281250e+03 4.84803962707520e+00 1346 
5.95784277343750e+03 8.82861132812500e+03 4.08756494522095e+00 1350 
5.94850634765625e+03 9.42978906250000e+03 4.11160373687744e+00 1351 
5.78187451171875e+03 9.48105664062500e+03 4.61974763870239e+00 1352 
7.34052343750000e+03 1.02474960937500e+04 4.36025285720825e+00 1356 
6.16284472656250e+03 1.04560625000000e+04 4.75995683670044e+00 1357 
6.28134521484375e+03 1.09747421875000e+04 4.93967056274414e+00 1359 
6.12733593750000e+03 1.10625361328125e+04 3.83049035072327e+00 1360 
5.22423974609375e+03 1.16689023437500e+04 3.59002351760864e+00 1362 
6.74127880859375e+03 1.19053623046875e+04 4.56266403198242e+00 1363 
7.56253759765625e+03 1.29408330078125e+04 4.65318012237549e+00 1365 
7.77641503906250e+03 6.09123779296875e+02 4.34218215942383e+00 1367 
6.42730615234375e+03 7.88096484375000e+03 5.20679569244385e+00 1371 
5.58982324218750e+03 8.59101171875000e+03 3.81792712211609e+00 1373 
7.93373632812500e+03 8.96666015625000e+03 5.47609519958496e+00 1374 
5.90996044921875e+03 9.51337988281250e+03 3.85068440437317e+00 1375 
7.58815527343750e+03 9.88269726562500e+03 1.22577180862427e+01 1377 
7.44490722656250e+03 1.03449257812500e+04 1.58600740432739e+01 1378 
6.27872949218750e+03 5.21627929687500e+03 6.66176366806030e+00 1382 
6.28709521484375e+03 1.18434560546875e+04 4.04066658020020e+00 1383 
6.43863525390625e+03 1.06229687500000e+04 6.81539821624756e+00 1384 
5.50126757812500e+03 5.10068701171875e+03 3.73226714134216e+00 1385 
5.09875097656250e+03 1.21334277343750e+04 4.56645774841309e+00 1386 
7.87830322265625e+03 7.37608544921875e+03 3.57719135284424e+00 1387 
7.02437402343750e+03 1.11325556640625e+04 4.10861253738403e+00 1388 
5.26293945312500e+03 8.87913671875000e+03 4.98756933212280e+00 1389 
7.96979882812500e+03 1.07327216796875e+04 4.01868534088135e+00 1390 
6.22537646484375e+03 1.23128574218750e+04 4.82143688201904e+00 1391 
8.73667968750000e+03 4.44072412109375e+03 4.14241456985474e+00 1392 
5.79171875000000e+03 9.49818750000000e+03 4.38312530517578e+00 1393 
4.87041064453125e+03 1.23300556640625e+04 3.76499629020691e+00 1394 
4.53695263671875e+03 3.85624804687500e+03 4.65804958343506e+00 1395 
6.02509472656250e+03 6.48366894531250e+03 4.36384725570679e+00 1396 
8.72887011718750e+03 9.19963183593750e+03 4.74891281127930e+00 1397 
1.50187036132812e+03 1.08168457031250e+04 5.77162933349609e+00 1398 
5.17279296875000e+03 1.19680576171875e+04 3.86888074874878e+00 1408 
4.70281445312500e+03 1.21751044921875e+04 4.82611227035522e+00 1423 
3.45339648437500e+03 9.75194628906250e+03 4.37290811538696e+00 1427 
7.56508251953125e+03 9.87361035156250e+03 4.44269657135010e+00 1428 
2.96698291015625e+03 1.04715185546875e+04 4.40600109100342e+00 1429 
3.94700830078125e+03 1.09834462890625e+04 4.53107261657715e+00 1430 
2.51808984375000e+03 1.12473007812500e+04 4.13714218139648e+00 1431 
4.17987500000000e+03 1.25082343750000e+04 4.00527620315552e+00 1432 
4.53068994140625e+03 8.45851562500000e+03 4.88313102722168e+00 1433 
4.80157910156250e+03 8.46566992187500e+03 4.25272035598755e+00 1434 
3.74032617187500e+03 9.65562890625000e+03 3.79449248313904e+00 1435 
3.67824462890625e+03 9.74871191406250e+03 5.35674905776978e+00 1436 
3.85170336914062e+03 1.02309736328125e+04 4.30823421478271e+00 1437 
2.93194140625000e+03 1.04258466796875e+04 4.33909702301025e+00 1438 
4.39268798828125e+03 1.20807011718750e+04 5.20036077499390e+00 1439 
2.55168945312500e+03 1.24375917968750e+04 3.63557028770447e+00 1440 
4.29078320312500e+03 1.28956875000000e+04 8.28949069976807e+00 1441 
4.68106787109375e+03 8.76785546875000e+03 9.16209602355957e+00 1442 
3.43353491210938e+03 9.80035058593750e+03 1.07369203567505e+01 1443 
2.56263964843750e+03 6.95930517578125e+03 3.71255469322205e+00 1444 
2.58298559570312e+03 7.79122509765625e+03 4.51095771789551e+00 1445 
7.00190771484375e+03 8.46055761718750e+03 3.83170413970947e+00 1446 
2.59383520507812e+03 8.86874902343750e+03 4.43292331695557e+00 1447 
3.84681933593750e+03 1.06215878906250e+04 4.62798023223877e+00 1448 
4.34618945312500e+03 1.07322558593750e+04 4.11154127120972e+00 1449 
2.59324829101562e+03 1.08999267578125e+04 3.94312167167664e+00 1450 
3.56846850585938e+03 1.10266738281250e+04 4.07226514816284e+00 1451 
2.71499096679688e+03 1.25021738281250e+04 5.11420059204102e+00 1452 
2.46244848632812e+03 1.28793154296875e+04 3.86584043502808e+00 1453 
4.22324853515625e+03 5.30271923828125e+03 4.66753864288330e+00 1454 
4.16196044921875e+03 5.36821044921875e+03 4.65592622756958e+00 1455 
2.55810815429688e+03 6.75159570312500e+03 4.39543008804321e+00 1456 
2.94665234375000e+03 8.20662890625000e+03 4.16193914413452e+00 1457 
4.61984912109375e+03 9.50719921875000e+03 5.41097831726074e+00 1458 
4.03616162109375e+03 9.71464746093750e+03 4.89882946014404e+00 1459 
4.23826855468750e+03 1.16534394531250e+04 4.42094993591309e+00 1460 
2.53200927734375e+03 1.18508515625000e+04 4.39331245422363e+00 1461 
2.56178051757812e+03 1.19175595703125e+04 3.74165487289429e+00 1462 
3.42932788085938e+03 1.20060566406250e+04 3.91029524803162e+00 1463 
2.51980493164062e+03 1.24779248046875e+04 4.67509746551514e+00 1464 
4.44637988281250e+03 9.20582617187500e+03 1.12011604309082e+01 1465 
2.75218017578125e+03 3.95177783203125e+03 3.55320930480957e+00 1466 
3.50646606445312e+03 8.94292968750000e+03 4.21343612670898e+00 1467 
2.67617504882812e+03 8.98565429687500e+03 4.60562181472778e+00 1468 
4.64169873046875e+03 9.87802343750000e+03 3.69465065002441e+00 1469 
3.77633007812500e+03 1.02024541015625e+04 4.17960548400879e+00 1470 
2.49240136718750e+03 1.08799414062500e+04 3.93171167373657e+00 1471 
3.01830273437500e+03 1.13108652343750e+04 4.75066137313843e+00 1472 
4.79316748046875e+03 8.91328125000000e+03 5.30885601043701e+00 1473 
2.93842602539062e+03 3.29005615234375e+02 3.93167471885681e+00 1474 
2.72022265625000e+03 1.91887304687500e+03 3.85973238945007e+00 1475 
4.90250976562500e+03 7.80400292968750e+03 3.76263546943665e+00 1476 
3.05880737304688e+03 8.94414062500000e+03 4.02827072143555e+00 1477 
7.95705859375000e+03 9.15719335937500e+03 3.99656391143799e+00 1478 
2.77038256835938e+03 9.47643945312500e+03 4.96846151351929e+00 1479 
2.91967382812500e+03 1.03782021484375e+04 3.88893389701843e+00 1480 
3.92159423828125e+03 1.06639951171875e+04 4.92297315597534e+00 1481 
4.08537255859375e+03 1.09914150390625e+04 4.99367523193359e+00 1482 
2.97686938476562e+03 1.13020986328125e+04 4.02791500091553e+00 1483 
3.24066674804688e+03 1.19193085937500e+04 3.94695210456848e+00 1484 
3.92045117187500e+03 1.22297158203125e+04 4.05387926101685e+00 1485 
3.81452539062500e+03 1.25882353515625e+04 4.62147045135498e+00 1486 
4.15021240234375e+03 1.28543085937500e+04 5.07650470733643e+00 1487 
3.86846411132812e+03 5.10880078125000e+03 4.52899169921875e+00 1488 
3.33034008789062e+03 5.34963037109375e+03 4.02431964874268e+00 1489 
4.46259863281250e+03 5.47906152343750e+03 3.96545004844666e+00 1490 
3.22571435546875e+03 9.03587207031250e+03 4.20007514953613e+00 1491 
4.73403759765625e+03 6.22242626953125e+03 4.10830688476562e+00 1492 
3.12004614257812e+03 8.30940820312500e+03 4.03627109527588e+00 1493 
3.25429809570312e+03 8.69459570312500e+03 5.57249450683594e+00 1494 
3.10824218750000e+03 9.01686621093750e+03 5.45340585708618e+00 1495 
4.44629687500000e+03 9.21718457031250e+03 3.96963453292847e+00 1496 
4.11573046875000e+03 9.43275683593750e+03 5.36969947814941e+00 1497 
4.35006591796875e+03 9.76180468750000e+03 4.50709724426270e+00 1498 
2.80755493164062e+03 1.00046748046875e+04 4.10065269470215e+00 1499 
3.29774804687500e+03 1.10754121093750e+04 3.81800699234009e+00 1500 
2.67239404296875e+03 1.12428808593750e+04 3.96255803108215e+00 1501 
4.47260693359375e+03 1.13953642578125e+04 4.05471181869507e+00 1502 
4.06292065429688e+03 1.14472001953125e+04 6.17929649353027e+00 1503 
2.58620092773438e+03 1.18143710937500e+04 4.86881589889526e+00 1504 
3.00486596679688e+03 1.27822421875000e+04 4.40629386901855e+00 1505 
4.48002197265625e+03 1.28888994140625e+04 5.28361606597900e+00 1506 
4.80237744140625e+03 7.89125976562500e+03 4.04599046707153e+00 1507 
2.75472998046875e+03 8.81750000000000e+03 4.42505168914795e+00 1508 
3.54439526367188e+03 8.90786816406250e+03 5.23361921310425e+00 1509 
2.79492749023438e+03 9.52479980468750e+03 4.33509206771851e+00 1510 
2.62238427734375e+03 1.08313652343750e+04 4.02615642547607e+00 1511 
2.60053857421875e+03 1.26045283203125e+04 5.00681829452515e+00 1512 
4.38323730468750e+03 9.74769531250000e+03 4.71738338470459e+00 1513 
7.57288769531250e+03 9.84381542968750e+03 3.85404682159424e+00 1514 
2.95127807617188e+03 1.03076376953125e+04 4.19349431991577e+00 1515 
2.56254272460938e+03 1.17613330078125e+04 3.75119853019714e+00 1516 
3.79094897460938e+03 1.21519648437500e+04 5.43256807327271e+00 1517 
2.56802685546875e+03 1.24586435546875e+04 4.33815622329712e+00 1518 
3.65255273437500e+03 1.29417763671875e+04 5.25821638107300e+00 1519 
4.41867089843750e+03 1.13282744140625e+04 5.80971860885620e+00 1520 
2.73435083007812e+03 1.48239892578125e+03 5.22581815719604e+00 1521 
4.84758789062500e+03 4.93240625000000e+03 4.24095726013184e+00 1522 
6.68600634765625e+03 8.19816406250000e+03 4.68450546264648e+00 1523 
3.79629248046875e+03 8.95061425781250e+03 5.09035968780518e+00 1524 
2.61783496093750e+03 1.01962099609375e+04 4.07514810562134e+00 1525 
2.95262158203125e+03 1.03917246093750e+04 4.44567155838013e+00 1526 
3.33135034179688e+03 1.19179609375000e+04 3.99629139900208e+00 1527 
7.34239599609375e+03 1.12546650390625e+04 6.44128274917603e+00 1528 
4.48663330078125e+03 1.27521279296875e+04 6.47380352020264e+00 1529 
2.76585327148438e+03 3.19729467773438e+03 4.74955654144287e+00 1530 
4.39718212890625e+03 5.45501660156250e+03 4.11915874481201e+00 1531 
2.73278027343750e+03 9.25658984375000e+03 4.22159671783447e+00 1532 
2.76495117187500e+03 9.64273535156250e+03 3.89875531196594e+00 1533 
2.60634106445312e+03 1.02421904296875e+04 4.72474479675293e+00 1534 
7.57763476562500e+03 1.08910947265625e+04 3.93136692047119e+00 1535 
8.79841699218750e+03 1.17207910156250e+04 4.46826648712158e+00 1536 
4.47410888671875e+03 1.17104960937500e+04 3.68443512916565e+00 1537 
3.19060498046875e+03 1.28375683593750e+04 5.11139917373657e+00 1538 
3.30581347656250e+03 1.28438232421875e+04 4.40925359725952e+00 1539 
4.50045996093750e+03 1.29108632812500e+04 4.22068500518799e+00 1540 
4.24205273437500e+03 1.00455654296875e+04 5.52496385574341e+00 1541 
8.69602441406250e+03 1.06722910156250e+04 5.01742458343506e+00 1542 
4.28350097656250e+03 1.05696572265625e+04 4.63985443115234e+00 1543 
2.99005761718750e+03 1.12982744140625e+04 4.90709972381592e+00 1544 
3.66496972656250e+03 1.16339433593750e+04 4.65016078948975e+00 1545 
4.44085546875000e+03 9.23562207031250e+03 9.03948402404785e+00 1546 
3.32902124023438e+03 1.28598125000000e+04 5.29455566406250e+00 1547 
3.04199316406250e+03 1.00218847656250e+04 4.93267583847046e+00 1548 
2.42171191406250e+03 1.24568779296875e+04 4.30660200119019e+00 1549 
3.11005419921875e+03 1.28958173828125e+04 5.27340173721313e+00 1550 
4.00715795898438e+03 8.62637988281250e+03 5.83942270278931e+00 1551 
2.72109033203125e+03 1.04305097656250e+04 5.62224102020264e+00 1552 
3.96806494140625e+03 4.70665185546875e+03 4.15512514114380e+00 1553 
4.01979565429688e+03 8.28573339843750e+03 3.86160135269165e+00 1554 
3.79271069335938e+03 8.96825488281250e+03 5.02003526687622e+00 1555 
2.63874487304688e+03 1.03353378906250e+04 4.32762718200684e+00 1556 
4.07402270507812e+03 1.11131816406250e+04 4.84062290191650e+00 1557 
4.45872656250000e+03 1.13161738281250e+04 3.97124218940735e+00 1558 
4.64206005859375e+03 1.17697773437500e+04 3.51924562454224e+00 1559 
3.89338330078125e+03 1.26212187500000e+04 4.90425300598145e+00 1560 
3.00328393554688e+03 9.96403320312500e+03 6.74390172958374e+00 1561 
3.46711865234375e+03 8.47291210937500e+03 4.66903114318848e+00 1562 
4.10913134765625e+03 7.92322119140625e+03 4.61505794525146e+00 1563 
3.12016357421875e+03 8.27829589843750e+03 3.75724077224731e+00 1564 
6.42754589843750e+03 8.78978320312500e+03 5.21410989761353e+00 1565 
3.61624267578125e+03 1.04072412109375e+04 3.87556457519531e+00 1566 
2.57766455078125e+03 1.04067187500000e+04 5.22515296936035e+00 1567 
4.13858447265625e+03 1.04867822265625e+04 3.80976915359497e+00 1568 
3.49837182617188e+03 1.19080761718750e+04 4.11357545852661e+00 1569 
2.43840112304688e+03 1.25713007812500e+04 4.90767812728882e+00 1570 
2.65272265625000e+03 1.26401679687500e+04 5.09931898117065e+00 1571 
3.24804443359375e+03 1.29177900390625e+04 4.99299383163452e+00 1572 
